1.694953 -2.142277 0.442153
1.694953 -2.159046 0.442153
1.694953 -2.175815 0.442153
1.665997 -2.192584 0.454937
1.665997 -2.209352 0.454937
1.665997 -2.226121 0.454937
1.665997 -2.242890 0.454937
1.665997 -2.259659 0.454937
1.665997 -2.276428 0.454937
1.665997 -2.293196 0.454937
1.665997 -2.309965 0.454937
1.637041 -2.326734 0.467720
1.637041 -2.343503 0.467720
1.637041 -2.360271 0.467720
1.637041 -2.377040 0.467720
1.608084 -2.393809 0.480503
1.608084 -2.410578 0.480503
1.579128 -2.427346 0.493287
1.608084 -2.444116 0.480503
1.637041 -2.460884 0.467720
1.637041 -2.477653 0.467720
1.637041 -2.494421 0.467720
1.608084 -2.511191 0.480503
1.550171 -2.527959 0.506070
1.550171 -2.544728 0.506070
1.637041 -2.561497 0.467720
1.665997 -2.578266 0.454937
1.665997 -2.595034 0.454937
1.694953 -2.611803 0.442153
1.694953 -2.628572 0.442153
1.694953 -2.645341 0.442153
1.694953 -2.662109 0.442153
1.723910 -2.678879 0.429370
1.723910 -2.695647 0.429370
1.723910 -2.712416 0.429370
1.723910 -2.729185 0.429370
1.752866 -2.745954 0.416587
1.752866 -2.762722 0.416587
1.752866 -2.779491 0.416587
1.781823 -2.796260 0.403803
1.781823 -2.813029 0.403803
1.781823 -2.829797 0.403803
1.781823 -2.846566 0.403803
1.781823 -2.863335 0.403803
1.781823 -2.880104 0.403803
1.810779 -2.896873 0.391020
1.810779 -2.913641 0.391020
1.781823 -2.930410 0.403803
1.781823 -2.947179 0.403803
1.781823 -2.963948 0.403803
1.781823 -2.980717 0.403803
1.781823 -2.997485 0.403803
1.781823 -3.014254 0.403803
1.781823 -3.031023 0.403803
1.781823 -3.047792 0.403803
1.781823 -3.064561 0.403803
1.781823 -3.081329 0.403803
1.781823 -3.098098 0.403803
1.781823 -3.114867 0.403803
1.781823 -3.131636 0.403803
1.781823 -3.148405 0.403803
1.781823 -3.165174 0.403803
1.781823 -3.181942 0.403803
1.781823 -3.198711 0.403803
1.781823 -3.215480 0.403803
1.637041 -3.232248 0.467720
1.637041 -3.249017 0.467720
1.637041 -3.265786 0.467720
1.637041 -3.282555 0.467720
0.462141 0.373041 0.561020
0.462141 0.356272 0.561020
0.432260 0.339503 0.550579
0.402379 0.322734 0.540138
0.402379 0.305966 0.540138
0.402379 0.289197 0.540138
0.402379 0.272428 0.540138
0.402379 0.255659 0.540138
0.372498 0.238890 0.529698
0.372498 0.222122 0.529698
0.372498 0.205353 0.529698
0.372498 0.188584 0.529698
0.372498 0.171815 0.529698
0.372498 0.155047 0.529698
0.372498 0.138278 0.529698
0.372498 0.121509 0.529698
0.372498 0.104740 0.529698
0.372498 0.087971 0.529698
0.372498 0.071203 0.529698
0.372498 0.054434 0.529698
0.372498 0.037665 0.529698
0.402379 0.020896 0.540138
0.402379 0.004127 0.540138
0.402379 -0.012641 0.540138
0.402379 -0.029410 0.540138
0.402379 -0.046179 0.540138
0.402379 -0.062948 0.540138
0.432260 -0.079717 0.550579
0.432260 -0.096485 0.550579
0.432260 -0.113254 0.550579
0.432260 -0.130023 0.550579
0.432260 -0.146792 0.550579
0.432260 -0.163560 0.550579
0.432260 -0.180329 0.550579
0.432260 -0.197098 0.550579
0.432260 -0.213867 0.550579
0.432260 -0.230636 0.550579
0.432260 -0.247404 0.550579
0.432260 -0.264173 0.550579
0.432260 -0.280942 0.550579
0.432260 -0.297711 0.550579
0.432260 -0.314479 0.550579
0.432260 -0.331248 0.550579
0.432260 -0.348017 0.550579
0.432260 -0.364786 0.550579
0.432260 -0.381555 0.550579
0.432260 -0.398323 0.550579
0.432260 -0.415092 0.550579
0.432260 -0.431861 0.550579
0.432260 -0.448630 0.550579
0.462141 -0.465399 0.561020
0.462141 -0.482167 0.561020
0.462141 -0.498936 0.561020
0.462141 -0.515705 0.561020
0.462141 -0.532474 0.561020
0.492022 -0.549242 0.571461
0.492022 -0.566011 0.571461
0.492022 -0.582780 0.571461
0.492022 -0.599549 0.571461
0.492022 -0.616318 0.571461
0.492022 -0.633086 0.571461
0.492022 -0.649855 0.571461
0.492022 -0.666624 0.571461
0.492022 -0.683393 0.571461
0.492022 -0.700162 0.571461
0.521903 -0.716930 0.581901
0.521903 -0.733699 0.581901
0.521903 -0.750468 0.581901
0.521903 -0.767237 0.581901
0.521903 -0.784006 0.581901
0.551784 -0.800774 0.592342
0.581665 -0.817543 0.602783
0.581665 -0.834312 0.602783
0.611546 -0.851081 0.613224
0.641427 -0.867849 0.623665
0.671308 -0.884618 0.634105
0.671308 -0.901387 0.634105
0.701189 -0.918156 0.644546
0.701189 -0.934925 0.644546
0.671308 -0.951693 0.634105
0.671308 -0.968462 0.634105
0.671308 -0.985231 0.634105
0.701189 -1.002000 0.644546
0.760952 -1.018769 0.665428
0.701189 -1.035537 0.644546
0.671308 -1.052306 0.634105
0.671308 -1.069075 0.634105
0.641427 -1.085844 0.623665
0.671308 -1.102612 0.634105
0.731071 -1.119381 0.654987
0.760952 -1.136150 0.665428
0.760952 -1.152919 0.665428
0.760952 -1.169688 0.665428
0.790833 -1.186456 0.675869
0.790833 -1.203225 0.675869
0.820714 -1.219994 0.686309
0.820714 -1.236763 0.686309
0.820714 -1.253532 0.686309
0.850595 -1.270300 0.696750
0.850595 -1.287069 0.696750
0.850595 -1.303838 0.696750
0.820714 -1.320607 0.686309
0.820714 -1.337376 0.686309
0.820714 -1.354144 0.686309
0.820714 -1.370913 0.686309
0.820714 -1.387682 0.686309
0.820714 -1.404451 0.686309
0.820714 -1.421220 0.686309
0.820714 -1.437988 0.686309
0.850595 -1.454757 0.696750
0.850595 -1.471526 0.696750
0.850595 -1.488295 0.696750
0.850595 -1.505064 0.696750
0.880476 -1.521832 0.707191
0.880476 -1.538601 0.707191
0.880476 -1.555370 0.707191
0.880476 -1.572139 0.707191
0.910357 -1.588907 0.717632
0.910357 -1.605676 0.717632
0.910357 -1.622445 0.717632
0.910357 -1.639214 0.717632
0.910357 -1.655982 0.717632
0.940238 -1.672751 0.728072
0.940238 -1.689520 0.728072
0.940238 -1.706289 0.728072
0.970119 -1.723058 0.738513
0.970119 -1.739826 0.738513
0.940238 -1.756595 0.728072
0.940238 -1.773364 0.728072
0.910357 -1.790133 0.717632
0.880476 -1.806902 0.707191
0.880476 -1.823670 0.707191
0.880476 -1.840439 0.707191
0.880476 -1.857208 0.707191
0.880476 -1.873976 0.707191
0.880476 -1.890745 0.707191
0.880476 -1.907514 0.707191
0.880476 -1.924283 0.707191
0.880476 -1.941052 0.707191
0.880476 -1.957820 0.707191
0.910357 -1.974589 0.717632
0.910357 -1.991358 0.717632
0.521903 -2.008127 0.581901
0.492022 -2.024896 0.571461
0.492022 -2.041664 0.571461
0.492022 -2.058433 0.571461
0.462141 -2.075202 0.561020
0.462141 -2.091971 0.561020
0.462141 -2.108740 0.561020
0.492022 -2.125508 0.571461
0.492022 -2.142277 0.571461
0.462141 -2.159046 0.561020
0.462141 -2.175815 0.561020
0.462141 -2.192584 0.561020
0.462141 -2.209352 0.561020
0.462141 -2.226121 0.561020
0.462141 -2.242890 0.561020
0.492022 -2.259659 0.571461
0.492022 -2.276428 0.571461
0.492022 -2.293196 0.571461
0.551784 -2.309965 0.592342
0.581665 -2.326734 0.602783
0.581665 -2.343503 0.602783
0.581665 -2.360271 0.602783
0.671308 -2.393809 0.634105
0.462141 -2.410578 0.561020
0.402379 -2.427346 0.540138
0.342617 -2.444116 0.519257
0.282855 -2.460884 0.498375
0.282855 -2.477653 0.498375
0.252974 -2.494421 0.487934
0.252974 -2.511191 0.487934
0.223093 -2.527959 0.477494
0.223093 -2.544728 0.477494
0.193212 -2.561497 0.467053
0.193212 -2.578266 0.467053
0.193212 -2.595034 0.467053
0.193212 -2.611803 0.467053
0.163330 -2.628572 0.456612
0.163330 -2.645341 0.456612
0.163330 -2.662109 0.456612
0.163330 -2.678879 0.456612
0.133449 -2.695647 0.446171
0.133449 -2.712416 0.446171
0.133449 -2.729185 0.446171
0.073687 -2.745954 0.425290
0.073687 -2.762722 0.425290
0.073687 -2.779491 0.425290
0.043806 -2.796260 0.414849
0.013925 -2.813029 0.404408
0.013925 -2.829797 0.404408
0.013925 -2.846566 0.404408
0.043806 -2.863335 0.414849
0.043806 -2.880104 0.414849
0.073687 -2.896873 0.425290
0.073687 -2.913641 0.425290
0.043806 -2.930410 0.414849
0.013925 -3.064561 0.404408
0.013925 -3.081329 0.404408
1.735345 -0.498936 0.379436
1.735345 -0.515705 0.379436
1.735345 -0.532474 0.379436
1.735345 -0.549242 0.379436
1.763627 -0.566011 0.365224
1.763627 -0.582780 0.365224
1.763627 -0.599549 0.365224
1.735345 -0.616318 0.379436
1.735345 -0.633086 0.379436
1.735345 -0.649855 0.379436
1.735345 -0.666624 0.379436
1.707062 -0.683393 0.393648
1.707062 -0.700162 0.393648
1.678780 -0.716930 0.407860
1.678780 -0.733699 0.407860
1.678780 -0.750468 0.407860
1.678780 -0.767237 0.407860
1.678780 -0.784006 0.407860
1.678780 -0.800774 0.407860
1.678780 -0.817543 0.407860
1.678780 -0.834312 0.407860
1.678780 -0.851081 0.407860
1.678780 -0.867849 0.407860
1.678780 -0.884618 0.407860
1.678780 -0.901387 0.407860
1.678780 -0.918156 0.407860
1.678780 -0.934925 0.407860
1.678780 -0.951693 0.407860
1.678780 -0.968462 0.407860
1.678780 -0.985231 0.407860
1.678780 -1.002000 0.407860
1.650497 -1.018769 0.422073
1.650497 -1.035537 0.422073
1.650497 -1.052306 0.422073
1.650497 -1.069075 0.422073
1.622215 -1.085844 0.436285
1.622215 -1.102612 0.436285
1.622215 -1.119381 0.436285
1.622215 -1.136150 0.436285
1.622215 -1.152919 0.436285
1.622215 -1.169688 0.436285
1.622215 -1.186456 0.436285
1.593932 -1.203225 0.450497
1.593932 -1.219994 0.450497
1.593932 -1.236763 0.450497
1.593932 -1.253532 0.450497
1.593932 -1.270300 0.450497
1.593932 -1.287069 0.450497
1.593932 -1.303838 0.450497
1.565650 -1.320607 0.464709
1.593932 -1.337376 0.450497
1.593932 -1.354144 0.450497
1.593932 -1.370913 0.450497
1.593932 -1.387682 0.450497
1.593932 -1.404451 0.450497
1.565650 -1.421220 0.464709
1.565650 -1.437988 0.464709
1.565650 -1.454757 0.464709
1.565650 -1.471526 0.464709
1.537367 -1.488295 0.478921
1.537367 -1.505064 0.478921
1.537367 -1.521832 0.478921
1.537367 -1.538601 0.478921
1.537367 -1.555370 0.478921
1.537367 -1.572139 0.478921
1.424237 -1.706289 0.535770
1.424237 -1.723058 0.535770
1.395955 -1.739826 0.549983
1.395955 -1.756595 0.549983
1.395955 -1.773364 0.549983
1.395955 -1.790133 0.549983
1.395955 -1.806902 0.549983
1.367672 -1.823670 0.564195
1.367672 -1.840439 0.564195
1.593932 -2.008127 0.450497
1.593932 -2.024896 0.450497
1.622215 -2.041664 0.436285
1.622215 -2.058433 0.436285
1.622215 -2.075202 0.436285
1.622215 -2.091971 0.436285
1.650497 -2.108740 0.422073
1.650497 -2.125508 0.422073
1.650497 -2.142277 0.422073
1.650497 -2.159046 0.422073
1.650497 -2.175815 0.422073
1.622215 -2.192584 0.436285
1.622215 -2.209352 0.436285
1.622215 -2.226121 0.436285
1.622215 -2.242890 0.436285
1.622215 -2.259659 0.436285
1.622215 -2.276428 0.436285
1.622215 -2.293196 0.436285
1.622215 -2.309965 0.436285
1.622215 -2.326734 0.436285
1.622215 -2.343503 0.436285
1.622215 -2.360271 0.436285
1.593932 -2.377040 0.450497
1.593932 -2.393809 0.450497
1.565650 -2.410578 0.464709
1.565650 -2.427346 0.464709
1.593932 -2.444116 0.450497
1.593932 -2.460884 0.450497
1.622215 -2.477653 0.436285
1.650497 -2.494421 0.422073
1.593932 -2.511191 0.450497
1.593932 -2.527959 0.450497
1.565650 -2.544728 0.464709
1.593932 -2.561497 0.450497
1.650497 -2.578266 0.422073
1.650497 -2.595034 0.422073
1.678780 -2.611803 0.407860
1.678780 -2.628572 0.407860
1.678780 -2.645341 0.407860
1.707062 -2.662109 0.393648
1.707062 -2.678879 0.393648
1.735345 -2.695647 0.379436
1.735345 -2.712416 0.379436
1.735345 -2.729185 0.379436
1.735345 -2.745954 0.379436
1.763627 -2.762722 0.365224
1.763627 -2.779491 0.365224
1.763627 -2.796260 0.365224
1.763627 -2.813029 0.365224
1.791910 -2.829797 0.351011
1.791910 -2.846566 0.351011
1.791910 -2.863335 0.351011
1.791910 -2.880104 0.351011
1.791910 -2.896873 0.351011
1.791910 -2.913641 0.351011
1.791910 -2.930410 0.351011
1.791910 -2.947179 0.351011
1.791910 -2.963948 0.351011
1.791910 -2.980717 0.351011
1.791910 -2.997485 0.351011
1.791910 -3.014254 0.351011
1.791910 -3.031023 0.351011
1.791910 -3.047792 0.351011
1.791910 -3.064561 0.351011
1.791910 -3.081329 0.351011
1.791910 -3.098098 0.351011
1.791910 -3.114867 0.351011
1.791910 -3.131636 0.351011
1.791910 -3.148405 0.351011
1.791910 -3.165174 0.351011
1.791910 -3.181942 0.351011
1.791910 -3.198711 0.351011
1.707062 -3.215480 0.393648
1.678780 -3.232248 0.407860
1.650497 -3.249017 0.422073
1.650497 -3.265786 0.422073
1.622215 -3.282555 0.436285
1.715991 -0.582780 0.343205
1.715991 -0.599549 0.343205
1.688453 -0.616318 0.358811
1.688453 -0.633086 0.358811
1.688453 -0.649855 0.358811
1.688453 -0.666624 0.358811
1.688453 -0.683393 0.358811
1.688453 -0.700162 0.358811
1.688453 -0.716930 0.358811
1.688453 -0.733699 0.358811
1.688453 -0.750468 0.358811
1.660915 -0.767237 0.374417
1.660915 -0.784006 0.374417
1.660915 -0.800774 0.374417
1.660915 -0.817543 0.374417
1.660915 -0.834312 0.374417
1.660915 -0.851081 0.374417
1.660915 -0.867849 0.374417
1.660915 -0.884618 0.374417
1.660915 -0.901387 0.374417
1.660915 -0.918156 0.374417
1.660915 -0.934925 0.374417
1.633377 -0.951693 0.390022
1.633377 -0.968462 0.390022
1.633377 -0.985231 0.390022
1.633377 -1.002000 0.390022
1.633377 -1.018769 0.390022
1.633377 -1.035537 0.390022
1.633377 -1.052306 0.390022
1.633377 -1.069075 0.390022
1.633377 -1.085844 0.390022
1.633377 -1.102612 0.390022
1.633377 -1.119381 0.390022
1.605839 -1.136150 0.405628
1.605839 -1.152919 0.405628
1.605839 -1.169688 0.405628
1.605839 -1.186456 0.405628
1.605839 -1.203225 0.405628
1.605839 -1.219994 0.405628
1.578301 -1.236763 0.421234
1.578301 -1.253532 0.421234
1.578301 -1.270300 0.421234
1.578301 -1.287069 0.421234
1.550763 -1.303838 0.436840
1.440610 -1.572139 0.499262
1.440610 -1.588907 0.499262
1.440610 -1.605676 0.499262
1.440610 -1.622445 0.499262
1.413072 -1.639214 0.514868
1.413072 -1.655982 0.514868
1.413072 -1.672751 0.514868
1.413072 -1.689520 0.514868
1.413072 -1.706289 0.514868
1.385534 -1.723058 0.530474
1.385534 -1.739826 0.530474
1.385534 -1.756595 0.530474
1.385534 -1.773364 0.530474
1.385534 -1.790133 0.530474
1.578301 -2.024896 0.421234
1.578301 -2.041664 0.421234
1.578301 -2.058433 0.421234
1.578301 -2.075202 0.421234
1.605839 -2.091971 0.405628
1.605839 -2.108740 0.405628
1.605839 -2.125508 0.405628
1.605839 -2.142277 0.405628
1.605839 -2.159046 0.405628
1.605839 -2.175815 0.405628
1.605839 -2.192584 0.405628
1.605839 -2.209352 0.405628
1.605839 -2.226121 0.405628
1.605839 -2.242890 0.405628
1.605839 -2.259659 0.405628
1.605839 -2.276428 0.405628
1.605839 -2.293196 0.405628
1.578301 -2.309965 0.421234
1.578301 -2.326734 0.421234
1.578301 -2.343503 0.421234
1.578301 -2.360271 0.421234
1.578301 -2.377040 0.421234
1.550763 -2.393809 0.436840
1.550763 -2.410578 0.436840
1.523225 -2.427346 0.452445
1.550763 -2.444116 0.436840
1.578301 -2.460884 0.421234
1.578301 -2.477653 0.421234
1.633377 -2.494421 0.390022
1.633377 -2.511191 0.390022
1.633377 -2.527959 0.390022
1.605839 -2.544728 0.405628
1.605839 -2.561497 0.405628
1.605839 -2.578266 0.405628
1.633377 -2.595034 0.390022
1.660915 -2.611803 0.374417
1.660915 -2.628572 0.374417
1.688453 -2.645341 0.358811
1.688453 -2.662109 0.358811
1.688453 -2.678879 0.358811
1.715991 -2.695647 0.343205
1.715991 -2.712416 0.343205
1.715991 -2.729185 0.343205
1.743530 -2.745954 0.327600
1.743530 -2.762722 0.327600
1.743530 -2.779491 0.327600
1.743530 -2.796260 0.327600
1.771068 -2.813029 0.311994
1.771068 -2.829797 0.311994
1.771068 -2.846566 0.311994
1.798606 -2.863335 0.296388
1.798606 -2.880104 0.296388
1.798606 -2.896873 0.296388
1.798606 -2.913641 0.296388
1.798606 -2.930410 0.296388
1.798606 -2.947179 0.296388
1.798606 -2.963948 0.296388
1.798606 -2.980717 0.296388
1.771068 -2.997485 0.311994
1.771068 -3.014254 0.311994
1.771068 -3.031023 0.311994
1.771068 -3.047792 0.311994
1.771068 -3.064561 0.311994
1.798606 -3.081329 0.296388
1.798606 -3.098098 0.296388
1.798606 -3.114867 0.296388
1.798606 -3.131636 0.296388
1.798606 -3.148405 0.296388
1.798606 -3.165174 0.296388
1.771068 -3.181942 0.311994
1.743530 -3.198711 0.327600
1.688453 -3.215480 0.358811
1.660915 -3.232248 0.374417
1.660915 -3.249017 0.374417
1.660915 -3.265786 0.374417
1.660915 -3.282555 0.374417
1.660915 -3.349630 0.374417
1.660915 -3.366399 0.374417
1.587954 -0.515705 0.375827
1.614679 -0.532474 0.358867
1.614679 -0.549242 0.358867
1.614679 -0.566011 0.358867
1.614679 -0.582780 0.358867
1.614679 -0.599549 0.358867
1.614679 -0.616318 0.358867
1.614679 -0.633086 0.358867
1.614679 -0.649855 0.358867
1.614679 -0.666624 0.358867
1.614679 -0.683393 0.358867
1.614679 -0.700162 0.358867
1.614679 -0.716930 0.358867
1.614679 -0.733699 0.358867
1.614679 -0.750468 0.358867
1.614679 -0.767237 0.358867
1.614679 -0.784006 0.358867
1.614679 -0.800774 0.358867
1.614679 -0.817543 0.358867
1.614679 -0.834312 0.358867
1.614679 -0.851081 0.358867
1.614679 -0.867849 0.358867
1.614679 -0.884618 0.358867
1.587954 -0.901387 0.375827
1.587954 -0.918156 0.375827
1.587954 -0.934925 0.375827
1.587954 -0.951693 0.375827
1.587954 -0.968462 0.375827
1.587954 -0.985231 0.375827
1.587954 -1.002000 0.375827
1.587954 -1.018769 0.375827
1.507778 -1.270300 0.426708
1.481053 -1.287069 0.443668
1.481053 -1.303838 0.443668
1.481053 -1.320607 0.443668
1.481053 -1.337376 0.443668
1.481053 -1.354144 0.443668
1.481053 -1.370913 0.443668
1.454328 -1.387682 0.460629
1.454328 -1.404451 0.460629
1.454328 -1.421220 0.460629
1.454328 -1.437988 0.460629
1.454328 -1.454757 0.460629
1.454328 -1.471526 0.460629
1.454328 -1.488295 0.460629
1.454328 -1.505064 0.460629
1.427603 -1.521832 0.477589
1.427603 -1.538601 0.477589
1.427603 -1.555370 0.477589
1.427603 -1.572139 0.477589
1.427603 -1.588907 0.477589
1.400878 -1.605676 0.494549
1.400878 -1.622445 0.494549
1.400878 -1.639214 0.494549
1.400878 -1.655982 0.494549
1.400878 -1.672751 0.494549
1.400878 -1.689520 0.494549
1.374153 -1.706289 0.511510
1.240527 -1.907514 0.596311
1.240527 -1.924283 0.596311
1.534503 -2.024896 0.409748
1.534503 -2.041664 0.409748
1.534503 -2.058433 0.409748
1.561229 -2.075202 0.392787
1.561229 -2.091971 0.392787
1.561229 -2.108740 0.392787
1.561229 -2.125508 0.392787
1.561229 -2.142277 0.392787
1.561229 -2.159046 0.392787
1.561229 -2.175815 0.392787
1.561229 -2.192584 0.392787
1.561229 -2.209352 0.392787
1.561229 -2.226121 0.392787
1.561229 -2.242890 0.392787
1.561229 -2.259659 0.392787
1.561229 -2.276428 0.392787
1.561229 -2.293196 0.392787
1.561229 -2.309965 0.392787
1.561229 -2.326734 0.392787
1.534503 -2.343503 0.409748
1.561229 -2.360271 0.392787
1.481053 -2.393809 0.443668
1.481053 -2.410578 0.443668
1.507778 -2.427346 0.426708
1.507778 -2.444116 0.426708
1.561229 -2.460884 0.392787
1.561229 -2.477653 0.392787
1.587954 -2.494421 0.375827
1.614679 -2.511191 0.358867
1.641404 -2.527959 0.341906
1.641404 -2.544728 0.341906
1.614679 -2.561497 0.358867
1.614679 -2.578266 0.358867
1.614679 -2.595034 0.358867
1.641404 -2.611803 0.341906
1.641404 -2.628572 0.341906
1.668129 -2.645341 0.324946
1.668129 -2.662109 0.324946
1.668129 -2.678879 0.324946
1.694855 -2.695647 0.307986
1.694855 -2.712416 0.307986
1.721580 -2.729185 0.291026
1.721580 -2.745954 0.291026
1.721580 -2.762722 0.291026
1.721580 -2.779491 0.291026
1.748305 -2.796260 0.274065
1.748305 -2.813029 0.274065
1.748305 -2.829797 0.274065
1.775030 -2.846566 0.257105
1.775030 -2.863335 0.257105
1.775030 -2.880104 0.257105
1.775030 -2.896873 0.257105
1.775030 -2.913641 0.257105
1.775030 -2.930410 0.257105
1.775030 -2.947179 0.257105
1.775030 -2.963948 0.257105
1.775030 -2.980717 0.257105
1.775030 -2.997485 0.257105
1.775030 -3.014254 0.257105
1.775030 -3.031023 0.257105
1.775030 -3.047792 0.257105
1.801755 -3.064561 0.240145
1.801755 -3.081329 0.240145
1.801755 -3.098098 0.240145
1.801755 -3.114867 0.240145
1.801755 -3.131636 0.240145
1.801755 -3.148405 0.240145
1.801755 -3.165174 0.240145
1.748305 -3.181942 0.274065
1.694855 -3.198711 0.307986
1.694855 -3.215480 0.307986
1.694855 -3.232248 0.307986
1.668129 -3.249017 0.324946
1.668129 -3.265786 0.324946
1.614679 -3.282555 0.358867
1.561229 -3.299324 0.392787
1.614679 -3.349630 0.358867
1.641404 -3.366399 0.341906
1.542758 -0.532474 0.365228
1.542758 -0.549242 0.365228
1.542758 -0.566011 0.365228
1.542758 -0.582780 0.365228
1.542758 -0.599549 0.365228
1.542758 -0.616318 0.365228
1.542758 -0.633086 0.365228
1.542758 -0.649855 0.365228
1.542758 -0.666624 0.365228
1.542758 -0.683393 0.365228
1.542758 -0.700162 0.365228
1.542758 -0.716930 0.365228
1.542758 -0.733699 0.365228
1.542758 -0.750468 0.365228
1.542758 -0.767237 0.365228
1.542758 -0.784006 0.365228
1.542758 -0.800774 0.365228
1.542758 -0.817543 0.365228
1.542758 -0.834312 0.365228
1.542758 -0.851081 0.365228
1.542758 -0.867849 0.365228
1.542758 -0.884618 0.365228
1.542758 -0.901387 0.365228
1.542758 -0.918156 0.365228
1.542758 -0.934925 0.365228
1.542758 -0.951693 0.365228
1.542758 -0.968462 0.365228
1.516913 -0.985231 0.383501
1.516913 -1.002000 0.383501
1.516913 -1.018769 0.383501
1.516913 -1.035537 0.383501
1.516913 -1.052306 0.383501
1.491067 -1.069075 0.401773
1.491067 -1.085844 0.401773
1.491067 -1.102612 0.401773
1.491067 -1.119381 0.401773
1.491067 -1.136150 0.401773
1.465221 -1.152919 0.420046
1.465221 -1.169688 0.420046
1.465221 -1.186456 0.420046
1.465221 -1.203225 0.420046
1.465221 -1.219994 0.420046
1.465221 -1.236763 0.420046
1.465221 -1.253532 0.420046
1.465221 -1.270300 0.420046
1.465221 -1.287069 0.420046
1.439376 -1.303838 0.438319
1.439376 -1.320607 0.438319
1.439376 -1.337376 0.438319
1.439376 -1.354144 0.438319
1.439376 -1.370913 0.438319
1.439376 -1.387682 0.438319
1.439376 -1.404451 0.438319
1.439376 -1.421220 0.438319
1.439376 -1.437988 0.438319
1.413530 -1.454757 0.456591
1.413530 -1.471526 0.456591
1.413530 -1.488295 0.456591
1.413530 -1.505064 0.456591
1.413530 -1.521832 0.456591
1.387685 -1.538601 0.474864
1.387685 -1.555370 0.474864
1.387685 -1.572139 0.474864
1.387685 -1.588907 0.474864
1.387685 -1.605676 0.474864
1.361839 -1.622445 0.493137
1.206765 -1.873976 0.602773
1.206765 -1.890745 0.602773
1.206765 -1.907514 0.602773
1.206765 -1.924283 0.602773
1.206765 -1.941052 0.602773
1.206765 -1.957820 0.602773
1.491067 -2.041664 0.401773
1.491067 -2.058433 0.401773
1.491067 -2.075202 0.401773
1.516913 -2.091971 0.383501
1.516913 -2.108740 0.383501
1.516913 -2.125508 0.383501
1.516913 -2.142277 0.383501
1.542758 -2.159046 0.365228
1.542758 -2.175815 0.365228
1.542758 -2.192584 0.365228
1.542758 -2.209352 0.365228
1.542758 -2.226121 0.365228
1.542758 -2.242890 0.365228
1.542758 -2.259659 0.365228
1.542758 -2.276428 0.365228
1.542758 -2.293196 0.365228
1.516913 -2.309965 0.383501
1.516913 -2.326734 0.383501
1.491067 -2.343503 0.401773
1.491067 -2.360271 0.401773
1.465221 -2.377040 0.420046
1.439376 -2.393809 0.438319
1.465221 -2.410578 0.420046
1.491067 -2.427346 0.401773
1.491067 -2.444116 0.401773
1.516913 -2.460884 0.383501
1.542758 -2.477653 0.365228
1.568604 -2.494421 0.346955
1.594450 -2.511191 0.328683
1.620295 -2.527959 0.310410
1.620295 -2.544728 0.310410
1.620295 -2.561497 0.310410
1.620295 -2.578266 0.310410
1.620295 -2.595034 0.310410
1.620295 -2.611803 0.310410
1.620295 -2.628572 0.310410
1.646141 -2.645341 0.292137
1.646141 -2.662109 0.292137
1.671987 -2.678879 0.273865
1.671987 -2.695647 0.273865
1.697832 -2.712416 0.255592
1.697832 -2.729185 0.255592
1.697832 -2.745954 0.255592
1.723678 -2.762722 0.237319
1.723678 -2.779491 0.237319
1.749524 -2.796260 0.219047
1.749524 -2.813029 0.219047
1.749524 -2.829797 0.219047
1.775369 -2.846566 0.200774
1.775369 -2.863335 0.200774
1.775369 -2.880104 0.200774
1.775369 -2.896873 0.200774
1.775369 -2.913641 0.200774
1.775369 -2.930410 0.200774
1.775369 -2.947179 0.200774
1.775369 -2.963948 0.200774
1.775369 -2.980717 0.200774
1.775369 -2.997485 0.200774
1.775369 -3.014254 0.200774
1.775369 -3.031023 0.200774
1.801215 -3.047792 0.182501
1.801215 -3.064561 0.182501
1.801215 -3.081329 0.182501
1.801215 -3.098098 0.182501
1.801215 -3.114867 0.182501
1.801215 -3.131636 0.182501
1.801215 -3.148405 0.182501
1.749524 -3.165174 0.219047
1.723678 -3.181942 0.237319
1.697832 -3.198711 0.255592
1.697832 -3.215480 0.255592
1.697832 -3.232248 0.255592
1.697832 -3.249017 0.255592
1.671987 -3.265786 0.273865
1.646141 -3.282555 0.292137
1.620295 -3.299324 0.310410
1.594450 -3.316092 0.328683
1.498034 -0.582780 0.358164
1.522936 -0.599549 0.338625
1.522936 -0.616318 0.338625
1.522936 -0.633086 0.338625
1.522936 -0.649855 0.338625
1.522936 -0.666624 0.338625
1.522936 -0.683393 0.338625
1.522936 -0.700162 0.338625
1.522936 -0.716930 0.338625
1.522936 -0.733699 0.338625
1.522936 -0.750468 0.338625
1.522936 -0.767237 0.338625
1.522936 -0.784006 0.338625
1.522936 -0.800774 0.338625
1.498034 -0.817543 0.358164
1.498034 -0.834312 0.358164
1.498034 -0.851081 0.358164
1.498034 -0.867849 0.358164
1.498034 -0.884618 0.358164
1.498034 -0.901387 0.358164
1.498034 -0.918156 0.358164
1.498034 -0.934925 0.358164
1.498034 -0.951693 0.358164
1.473133 -0.968462 0.377704
1.473133 -0.985231 0.377704
1.473133 -1.002000 0.377704
1.473133 -1.018769 0.377704
1.473133 -1.035537 0.377704
1.473133 -1.052306 0.377704
1.448231 -1.069075 0.397243
1.448231 -1.085844 0.397243
1.448231 -1.102612 0.397243
1.448231 -1.119381 0.397243
1.448231 -1.136150 0.397243
1.448231 -1.152919 0.397243
1.448231 -1.169688 0.397243
1.448231 -1.186456 0.397243
1.423329 -1.203225 0.416783
1.423329 -1.219994 0.416783
1.423329 -1.236763 0.416783
1.423329 -1.253532 0.416783
1.423329 -1.270300 0.416783
1.423329 -1.287069 0.416783
1.423329 -1.303838 0.416783
1.423329 -1.320607 0.416783
1.423329 -1.337376 0.416783
1.423329 -1.354144 0.416783
1.423329 -1.370913 0.416783
1.398427 -1.387682 0.436322
1.398427 -1.404451 0.436322
1.398427 -1.421220 0.436322
1.398427 -1.437988 0.436322
1.373526 -1.454757 0.455862
1.373526 -1.471526 0.455862
1.373526 -1.488295 0.455862
1.373526 -1.505064 0.455862
1.373526 -1.521832 0.455862
1.373526 -1.538601 0.455862
1.348624 -1.555370 0.475401
1.199214 -1.857208 0.592638
1.199214 -1.873976 0.592638
1.199214 -1.890745 0.592638
1.199214 -1.907514 0.592638
1.199214 -1.924283 0.592638
1.199214 -1.941052 0.592638
1.199214 -1.957820 0.592638
1.473133 -2.075202 0.377704
1.473133 -2.091971 0.377704
1.498034 -2.108740 0.358164
1.498034 -2.125508 0.358164
1.498034 -2.142277 0.358164
1.522936 -2.159046 0.338625
1.522936 -2.175815 0.338625
1.522936 -2.192584 0.338625
1.498034 -2.209352 0.358164
1.498034 -2.226121 0.358164
1.498034 -2.242890 0.358164
1.498034 -2.259659 0.358164
1.498034 -2.276428 0.358164
1.498034 -2.293196 0.358164
1.473133 -2.309965 0.377704
1.473133 -2.326734 0.377704
1.448231 -2.343503 0.397243
1.448231 -2.360271 0.397243
1.448231 -2.377040 0.397243
1.423329 -2.393809 0.416783
1.448231 -2.410578 0.397243
1.448231 -2.427346 0.397243
1.473133 -2.444116 0.377704
1.498034 -2.460884 0.358164
1.522936 -2.477653 0.338625
1.547838 -2.494421 0.319085
1.572740 -2.511191 0.299546
1.597641 -2.527959 0.280006
1.597641 -2.544728 0.280006
1.622543 -2.561497 0.260467
1.622543 -2.578266 0.260467
1.622543 -2.595034 0.260467
1.597641 -2.611803 0.280006
1.597641 -2.628572 0.280006
1.622543 -2.645341 0.260467
1.647445 -2.662109 0.240927
1.647445 -2.678879 0.240927
1.672346 -2.695647 0.221388
1.672346 -2.712416 0.221388
1.672346 -2.729185 0.221388
1.697248 -2.745954 0.201848
1.697248 -2.762722 0.201848
1.722150 -2.779491 0.182309
1.722150 -2.796260 0.182309
1.722150 -2.813029 0.182309
1.747052 -2.829797 0.162769
1.747052 -2.846566 0.162769
1.747052 -2.863335 0.162769
1.747052 -2.880104 0.162769
1.771953 -2.896873 0.143230
1.771953 -2.913641 0.143230
1.771953 -2.930410 0.143230
1.771953 -2.947179 0.143230
1.771953 -2.963948 0.143230
1.771953 -2.980717 0.143230
1.771953 -2.997485 0.143230
1.771953 -3.014254 0.143230
1.796855 -3.031023 0.123690
1.796855 -3.047792 0.123690
1.796855 -3.064561 0.123690
1.796855 -3.081329 0.123690
1.796855 -3.098098 0.123690
1.796855 -3.114867 0.123690
1.796855 -3.131636 0.123690
1.771953 -3.148405 0.143230
1.747052 -3.165174 0.162769
1.722150 -3.181942 0.182309
1.722150 -3.198711 0.182309
1.722150 -3.215480 0.182309
1.697248 -3.232248 0.201848
1.697248 -3.249017 0.201848
1.697248 -3.265786 0.201848
1.672346 -3.282555 0.221388
1.672346 -3.299324 0.221388
1.647445 -3.316092 0.240927
1.597641 -3.349630 0.280006
1.597641 -3.366399 0.280006
1.430124 -0.582780 0.375316
1.454019 -0.599549 0.354559
1.454019 -0.616318 0.354559
1.477915 -0.633086 0.333801
1.477915 -0.649855 0.333801
1.477915 -0.666624 0.333801
1.477915 -0.683393 0.333801
1.477915 -0.700162 0.333801
1.477915 -0.716930 0.333801
1.477915 -0.733699 0.333801
1.454019 -0.750468 0.354559
1.454019 -0.767237 0.354559
1.454019 -0.784006 0.354559
1.454019 -0.800774 0.354559
1.454019 -0.817543 0.354559
1.454019 -0.834312 0.354559
1.454019 -0.851081 0.354559
1.430124 -0.867849 0.375316
1.430124 -0.884618 0.375316
1.430124 -0.901387 0.375316
1.430124 -0.918156 0.375316
1.430124 -0.934925 0.375316
1.430124 -0.951693 0.375316
1.430124 -0.968462 0.375316
1.430124 -0.985231 0.375316
1.430124 -1.002000 0.375316
1.430124 -1.018769 0.375316
1.430124 -1.035537 0.375316
1.430124 -1.052306 0.375316
1.406228 -1.069075 0.396074
1.406228 -1.085844 0.396074
1.406228 -1.102612 0.396074
1.406228 -1.119381 0.396074
1.406228 -1.136150 0.396074
1.406228 -1.152919 0.396074
1.406228 -1.169688 0.396074
1.406228 -1.186456 0.396074
1.382332 -1.203225 0.416832
1.406228 -1.219994 0.396074
1.382332 -1.236763 0.416832
1.382332 -1.253532 0.416832
1.382332 -1.270300 0.416832
1.382332 -1.287069 0.416832
1.382332 -1.303838 0.416832
1.382332 -1.320607 0.416832
1.382332 -1.337376 0.416832
1.358436 -1.354144 0.437589
1.358436 -1.370913 0.437589
1.358436 -1.387682 0.437589
1.358436 -1.404451 0.437589
1.358436 -1.421220 0.437589
1.358436 -1.437988 0.437589
1.334541 -1.454757 0.458347
1.191166 -1.806902 0.582893
1.191166 -1.823670 0.582893
1.191166 -1.840439 0.582893
1.191166 -1.857208 0.582893
1.191166 -1.873976 0.582893
1.191166 -1.890745 0.582893
1.191166 -1.907514 0.582893
1.191166 -1.924283 0.582893
1.191166 -1.941052 0.582893
1.191166 -1.957820 0.582893
1.191166 -1.974589 0.582893
1.430124 -2.075202 0.375316
1.454019 -2.091971 0.354559
1.454019 -2.108740 0.354559
1.454019 -2.125508 0.354559
1.477915 -2.142277 0.333801
1.477915 -2.159046 0.333801
1.477915 -2.175815 0.333801
1.477915 -2.192584 0.333801
1.477915 -2.209352 0.333801
1.477915 -2.226121 0.333801
1.477915 -2.242890 0.333801
1.454019 -2.259659 0.354559
1.454019 -2.276428 0.354559
1.454019 -2.293196 0.354559
1.454019 -2.309965 0.354559
1.430124 -2.326734 0.375316
1.430124 -2.343503 0.375316
1.382332 -2.360271 0.416832
1.382332 -2.377040 0.416832
1.358436 -2.393809 0.437589
1.382332 -2.410578 0.416832
1.406228 -2.427346 0.396074
1.430124 -2.444116 0.375316
1.454019 -2.460884 0.354559
1.477915 -2.477653 0.333801
1.501811 -2.494421 0.313043
1.525707 -2.511191 0.292286
1.549603 -2.527959 0.271528
1.573498 -2.544728 0.250770
1.597394 -2.561497 0.230013
1.621290 -2.578266 0.209255
1.621290 -2.595034 0.209255
1.597394 -2.611803 0.230013
1.597394 -2.628572 0.230013
1.597394 -2.645341 0.230013
1.621290 -2.662109 0.209255
1.621290 -2.678879 0.209255
1.645185 -2.695647 0.188497
1.645185 -2.712416 0.188497
1.669081 -2.729185 0.167740
1.669081 -2.745954 0.167740
1.692977 -2.762722 0.146982
1.692977 -2.779491 0.146982
1.716873 -2.796260 0.126225
1.716873 -2.813029 0.126225
1.716873 -2.829797 0.126225
1.740769 -2.846566 0.105467
1.740769 -2.863335 0.105467
1.740769 -2.880104 0.105467
1.740769 -2.896873 0.105467
1.764664 -2.913641 0.084709
1.764664 -2.930410 0.084709
1.764664 -2.947179 0.084709
1.764664 -2.963948 0.084709
1.764664 -2.980717 0.084709
1.764664 -2.997485 0.084709
1.788560 -3.014254 0.063952
1.788560 -3.031023 0.063952
1.788560 -3.047792 0.063952
1.788560 -3.064561 0.063952
1.788560 -3.081329 0.063952
1.788560 -3.098098 0.063952
1.788560 -3.114867 0.063952
1.788560 -3.131636 0.063952
1.764664 -3.148405 0.084709
1.764664 -3.165174 0.084709
1.740769 -3.181942 0.105467
1.740769 -3.198711 0.105467
1.740769 -3.215480 0.105467
1.716873 -3.232248 0.126225
1.716873 -3.249017 0.126225
1.692977 -3.265786 0.146982
1.692977 -3.282555 0.146982
1.669081 -3.299324 0.167740
1.669081 -3.316092 0.167740
1.669081 -3.332861 0.167740
1.159812 -0.431861 0.595485
1.410945 -0.616318 0.354321
1.410945 -0.633086 0.354321
1.410945 -0.649855 0.354321
1.410945 -0.666624 0.354321
1.410945 -0.683393 0.354321
1.410945 -0.700162 0.354321
1.410945 -0.716930 0.354321
1.410945 -0.733699 0.354321
1.410945 -0.750468 0.354321
1.410945 -0.767237 0.354321
1.410945 -0.784006 0.354321
1.410945 -0.800774 0.354321
1.410945 -0.817543 0.354321
1.388115 -0.834312 0.376245
1.388115 -0.851081 0.376245
1.388115 -0.867849 0.376245
1.388115 -0.884618 0.376245
1.388115 -0.901387 0.376245
1.388115 -0.918156 0.376245
1.388115 -0.934925 0.376245
1.388115 -0.951693 0.376245
1.388115 -0.968462 0.376245
1.388115 -0.985231 0.376245
1.388115 -1.002000 0.376245
1.388115 -1.018769 0.376245
1.388115 -1.035537 0.376245
1.388115 -1.052306 0.376245
1.388115 -1.069075 0.376245
1.365285 -1.085844 0.398169
1.365285 -1.102612 0.398169
1.365285 -1.119381 0.398169
1.365285 -1.136150 0.398169
1.365285 -1.152919 0.398169
1.365285 -1.169688 0.398169
1.342454 -1.186456 0.420093
1.342454 -1.203225 0.420093
1.342454 -1.219994 0.420093
1.342454 -1.236763 0.420093
1.342454 -1.253532 0.420093
1.342454 -1.270300 0.420093
1.342454 -1.287069 0.420093
1.342454 -1.303838 0.420093
1.342454 -1.320607 0.420093
1.342454 -1.337376 0.420093
1.342454 -1.354144 0.420093
1.319624 -1.370913 0.442017
1.319624 -1.387682 0.442017
1.159812 -1.790133 0.595485
1.159812 -1.806902 0.595485
1.159812 -1.823670 0.595485
1.182642 -1.840439 0.573561
1.182642 -1.857208 0.573561
1.182642 -1.873976 0.573561
1.182642 -1.890745 0.573561
1.182642 -1.907514 0.573561
1.182642 -1.924283 0.573561
1.159812 -1.941052 0.595485
1.159812 -1.957820 0.595485
1.159812 -1.974589 0.595485
1.159812 -1.991358 0.595485
1.388115 -2.075202 0.376245
1.410945 -2.091971 0.354321
1.410945 -2.108740 0.354321
1.410945 -2.125508 0.354321
1.433776 -2.142277 0.332397
1.433776 -2.159046 0.332397
1.433776 -2.175815 0.332397
1.433776 -2.192584 0.332397
1.433776 -2.209352 0.332397
1.433776 -2.226121 0.332397
1.433776 -2.242890 0.332397
1.433776 -2.259659 0.332397
1.433776 -2.276428 0.332397
1.410945 -2.293196 0.354321
1.410945 -2.309965 0.354321
1.388115 -2.326734 0.376245
1.365285 -2.343503 0.398169
1.342454 -2.360271 0.420093
1.342454 -2.377040 0.420093
1.296794 -2.393809 0.463941
1.296794 -2.410578 0.463941
1.388115 -2.427346 0.376245
1.433776 -2.444116 0.332397
1.433776 -2.460884 0.332397
1.456606 -2.477653 0.310473
1.479436 -2.494421 0.288548
1.502266 -2.511191 0.266624
1.525097 -2.527959 0.244700
1.547927 -2.544728 0.222776
1.570757 -2.561497 0.200852
1.593588 -2.578266 0.178928
1.616418 -2.595034 0.157004
1.616418 -2.611803 0.157004
1.616418 -2.628572 0.157004
1.593588 -2.645341 0.178928
1.593588 -2.662109 0.178928
1.593588 -2.678879 0.178928
1.616418 -2.695647 0.157004
1.639248 -2.712416 0.135080
1.639248 -2.729185 0.135080
1.662079 -2.745954 0.113156
1.684909 -2.762722 0.091232
1.684909 -2.779491 0.091232
1.707739 -2.796260 0.069308
1.707739 -2.813029 0.069308
1.707739 -2.829797 0.069308
1.707739 -2.846566 0.069308
1.730569 -2.863335 0.047384
1.730569 -2.880104 0.047384
1.730569 -2.896873 0.047384
1.753400 -2.913641 0.025460
1.753400 -2.930410 0.025460
1.753400 -2.947179 0.025460
1.753400 -2.963948 0.025460
1.776230 -2.980717 0.003536
1.776230 -2.997485 0.003536
1.776230 -3.014254 0.003536
1.776230 -3.031023 0.003536
1.776230 -3.047792 0.003536
1.776230 -3.064561 0.003536
1.776230 -3.081329 0.003536
1.776230 -3.098098 0.003536
1.776230 -3.114867 0.003536
1.776230 -3.131636 0.003536
1.776230 -3.148405 0.003536
1.776230 -3.165174 0.003536
1.753400 -3.181942 0.025460
1.753400 -3.198711 0.025460
1.753400 -3.215480 0.025460
1.730569 -3.232248 0.047384
1.730569 -3.249017 0.047384
1.707739 -3.265786 0.069308
1.707739 -3.282555 0.069308
1.684909 -3.299324 0.091232
1.684909 -3.316092 0.091232
1.662079 -3.332861 0.113156
1.662079 -3.349630 0.113156
1.570757 -3.366399 0.200852
1.547927 -3.383168 0.222776
1.151956 -0.415092 0.587703
1.151956 -0.431861 0.587703
1.151956 -0.448630 0.587703
1.217079 -0.482167 0.518595
1.238787 -0.498936 0.495559
1.238787 -0.515705 0.495559
1.347327 -0.700162 0.380379
1.347327 -0.716930 0.380379
1.347327 -0.733699 0.380379
1.347327 -0.750468 0.380379
1.369035 -0.767237 0.357344
1.369035 -0.784006 0.357344
1.369035 -0.800774 0.357344
1.369035 -0.817543 0.357344
1.369035 -0.834312 0.357344
1.369035 -0.851081 0.357344
1.369035 -0.867849 0.357344
1.369035 -0.884618 0.357344
1.369035 -0.901387 0.357344
1.347327 -0.918156 0.380379
1.347327 -0.934925 0.380379
1.347327 -0.951693 0.380379
1.347327 -0.968462 0.380379
1.347327 -0.985231 0.380379
1.347327 -1.002000 0.380379
1.347327 -1.018769 0.380379
1.347327 -1.035537 0.380379
1.347327 -1.052306 0.380379
1.325619 -1.069075 0.403415
1.325619 -1.085844 0.403415
1.325619 -1.102612 0.403415
1.325619 -1.119381 0.403415
1.325619 -1.136150 0.403415
1.325619 -1.152919 0.403415
1.325619 -1.169688 0.403415
1.325619 -1.186456 0.403415
1.325619 -1.203225 0.403415
1.303911 -1.219994 0.426451
1.303911 -1.236763 0.426451
1.303911 -1.253532 0.426451
1.303911 -1.270300 0.426451
1.303911 -1.287069 0.426451
1.303911 -1.303838 0.426451
1.282203 -1.320607 0.449487
1.282203 -1.337376 0.449487
1.282203 -1.354144 0.449487
1.282203 -1.370913 0.449487
1.151956 -1.773364 0.587703
1.151956 -1.790133 0.587703
1.151956 -1.806902 0.587703
1.151956 -1.823670 0.587703
1.173663 -1.840439 0.564667
1.173663 -1.857208 0.564667
1.173663 -1.873976 0.564667
1.173663 -1.890745 0.564667
1.173663 -1.907514 0.564667
1.173663 -1.924283 0.564667
1.151956 -1.941052 0.587703
1.151956 -1.957820 0.587703
1.130248 -1.974589 0.610739
1.130248 -1.991358 0.610739
1.151956 -2.008127 0.587703
1.151956 -2.024896 0.587703
1.369035 -2.075202 0.357344
1.369035 -2.091971 0.357344
1.390743 -2.108740 0.334308
1.390743 -2.125508 0.334308
1.390743 -2.142277 0.334308
1.412451 -2.159046 0.311272
1.412451 -2.175815 0.311272
1.412451 -2.192584 0.311272
1.412451 -2.209352 0.311272
1.412451 -2.226121 0.311272
1.412451 -2.242890 0.311272
1.412451 -2.259659 0.311272
1.390743 -2.276428 0.334308
1.369035 -2.293196 0.357344
1.369035 -2.309965 0.357344
1.369035 -2.326734 0.357344
1.369035 -2.343503 0.357344
1.347327 -2.360271 0.380379
1.325619 -2.377040 0.403415
1.282203 -2.393809 0.449487
1.282203 -2.410578 0.449487
1.412451 -2.427346 0.311272
1.412451 -2.444116 0.311272
1.412451 -2.460884 0.311272
1.434159 -2.477653 0.288236
1.434159 -2.494421 0.288236
1.477574 -2.511191 0.242164
1.499282 -2.527959 0.219128
1.520990 -2.544728 0.196092
1.542698 -2.561497 0.173056
1.564406 -2.578266 0.150020
1.586114 -2.595034 0.126985
1.607822 -2.611803 0.103949
1.607822 -2.628572 0.103949
1.607822 -2.645341 0.103949
1.586114 -2.662109 0.126985
1.586114 -2.678879 0.126985
1.607822 -2.695647 0.103949
1.607822 -2.712416 0.103949
1.629530 -2.729185 0.080913
1.651238 -2.745954 0.057877
1.651238 -2.762722 0.057877
1.672946 -2.779491 0.034841
1.672946 -2.796260 0.034841
1.694654 -2.813029 0.011805
1.694654 -2.829797 0.011805
1.694654 -2.846566 0.011805
1.716362 -2.863335 -0.011231
1.716362 -2.880104 -0.011231
1.716362 -2.896873 -0.011231
1.738070 -2.913641 -0.034267
1.738070 -2.930410 -0.034267
1.738070 -2.947179 -0.034267
1.738070 -2.963948 -0.034267
1.759778 -2.980717 -0.057303
1.759778 -2.997485 -0.057303
1.759778 -3.014254 -0.057303
1.759778 -3.031023 -0.057303
1.759778 -3.047792 -0.057303
1.759778 -3.064561 -0.057303
1.759778 -3.081329 -0.057303
1.759778 -3.098098 -0.057303
1.759778 -3.114867 -0.057303
1.759778 -3.131636 -0.057303
1.759778 -3.148405 -0.057303
1.759778 -3.165174 -0.057303
1.759778 -3.181942 -0.057303
1.759778 -3.198711 -0.057303
1.759778 -3.215480 -0.057303
1.759778 -3.232248 -0.057303
1.738070 -3.249017 -0.034267
1.716362 -3.265786 -0.011231
1.716362 -3.282555 -0.011231
1.694654 -3.299324 0.011805
1.694654 -3.316092 0.011805
1.672946 -3.332861 0.034841
1.651238 -3.349630 0.057877
1.629530 -3.366399 0.080913
1.629530 -3.383168 0.080913
1.123189 -0.415092 0.604412
1.143721 -0.431861 0.580322
1.143721 -0.448630 0.580322
1.164252 -0.465399 0.556231
1.205315 -0.482167 0.508051
1.225847 -0.498936 0.483961
1.225847 -0.515705 0.483961
1.225847 -0.532474 0.483961
1.225847 -0.549242 0.483961
1.328505 -0.700162 0.363509
1.328505 -0.716930 0.363509
1.328505 -0.733699 0.363509
1.328505 -0.750468 0.363509
1.328505 -0.767237 0.363509
1.328505 -0.784006 0.363509
1.328505 -0.800774 0.363509
1.328505 -0.817543 0.363509
1.328505 -0.834312 0.363509
1.328505 -0.851081 0.363509
1.328505 -0.867849 0.363509
1.328505 -0.884618 0.363509
1.328505 -0.901387 0.363509
1.307973 -0.918156 0.387599
1.307973 -0.934925 0.387599
1.307973 -0.951693 0.387599
1.307973 -0.968462 0.387599
1.307973 -0.985231 0.387599
1.307973 -1.002000 0.387599
1.307973 -1.018769 0.387599
1.307973 -1.035537 0.387599
1.307973 -1.052306 0.387599
1.307973 -1.069075 0.387599
1.307973 -1.085844 0.387599
1.287441 -1.102612 0.411690
1.287441 -1.119381 0.411690
1.287441 -1.136150 0.411690
1.287441 -1.152919 0.411690
1.287441 -1.169688 0.411690
1.266910 -1.186456 0.435780
1.266910 -1.203225 0.435780
1.266910 -1.219994 0.435780
1.266910 -1.236763 0.435780
1.266910 -1.253532 0.435780
1.266910 -1.270300 0.435780
1.266910 -1.287069 0.435780
1.266910 -1.303838 0.435780
1.266910 -1.320607 0.435780
1.266910 -1.337376 0.435780
1.246379 -1.354144 0.459870
1.246379 -1.370913 0.459870
1.246379 -1.387682 0.459870
1.225847 -1.404451 0.483961
1.225847 -1.421220 0.483961
1.123189 -1.773364 0.604412
1.123189 -1.790133 0.604412
1.143721 -1.806902 0.580322
1.164252 -1.823670 0.556231
1.164252 -1.840439 0.556231
1.164252 -1.857208 0.556231
1.164252 -1.873976 0.556231
1.164252 -1.890745 0.556231
1.164252 -1.907514 0.556231
1.143721 -1.924283 0.580322
1.143721 -1.941052 0.580322
1.143721 -1.957820 0.580322
1.123189 -1.974589 0.604412
1.123189 -1.991358 0.604412
1.123189 -2.008127 0.604412
1.123189 -2.024896 0.604412
1.143721 -2.041664 0.580322
1.349036 -2.075202 0.339419
1.349036 -2.091971 0.339419
1.349036 -2.108740 0.339419
1.369568 -2.125508 0.315328
1.369568 -2.142277 0.315328
1.390099 -2.159046 0.291238
1.369568 -2.175815 0.315328
1.369568 -2.192584 0.315328
1.369568 -2.209352 0.315328
1.369568 -2.226121 0.315328
1.369568 -2.242890 0.315328
1.369568 -2.259659 0.315328
1.369568 -2.276428 0.315328
1.369568 -2.293196 0.315328
1.349036 -2.309965 0.339419
1.349036 -2.326734 0.339419
1.328505 -2.343503 0.363509
1.328505 -2.360271 0.363509
1.307973 -2.377040 0.387599
1.266910 -2.393809 0.435780
1.266910 -2.410578 0.435780
1.266910 -2.427346 0.435780
1.390099 -2.444116 0.291238
1.390099 -2.460884 0.291238
1.410631 -2.477653 0.267148
1.410631 -2.494421 0.267148
1.410631 -2.511191 0.267148
1.431162 -2.527959 0.243057
1.492757 -2.544728 0.170786
1.513288 -2.561497 0.146696
1.533820 -2.578266 0.122606
1.554352 -2.595034 0.098516
1.574883 -2.611803 0.074425
1.574883 -2.628572 0.074425
1.595415 -2.645341 0.050335
1.595415 -2.662109 0.050335
1.595415 -2.678879 0.050335
1.595415 -2.695647 0.050335
1.595415 -2.712416 0.050335
1.615946 -2.729185 0.026245
1.615946 -2.745954 0.026245
1.636478 -2.762722 0.002154
1.636478 -2.779491 0.002154
1.657009 -2.796260 -0.021936
1.657009 -2.813029 -0.021936
1.677541 -2.829797 -0.046026
1.677541 -2.846566 -0.046026
1.677541 -2.863335 -0.046026
1.698072 -2.880104 -0.070117
1.698072 -2.896873 -0.070117
1.718604 -2.913641 -0.094207
1.718604 -2.930410 -0.094207
1.718604 -2.947179 -0.094207
1.718604 -2.963948 -0.094207
1.739136 -2.980717 -0.118297
1.739136 -2.997485 -0.118297
1.739136 -3.014254 -0.118297
1.739136 -3.031023 -0.118297
1.739136 -3.047792 -0.118297
1.739136 -3.064561 -0.118297
1.739136 -3.081329 -0.118297
1.739136 -3.098098 -0.118297
1.739136 -3.114867 -0.118297
1.739136 -3.131636 -0.118297
1.759667 -3.148405 -0.142388
1.759667 -3.165174 -0.142388
1.759667 -3.181942 -0.142388
1.759667 -3.198711 -0.142388
1.739136 -3.215480 -0.118297
1.739136 -3.232248 -0.118297
1.739136 -3.249017 -0.118297
1.718604 -3.265786 -0.094207
1.718604 -3.282555 -0.094207
1.698072 -3.299324 -0.070117
1.698072 -3.316092 -0.070117
1.677541 -3.332861 -0.046026
1.657009 -3.349630 -0.021936
1.636478 -3.366399 0.002154
1.636478 -3.383168 0.002154
1.636478 -3.399936 0.002154
1.615946 -3.416705 0.026245
1.115824 -0.415092 0.598446
1.135128 -0.431861 0.573361
1.135128 -0.448630 0.573361
1.135128 -0.465399 0.573361
1.173736 -0.482167 0.523191
1.173736 -0.498936 0.523191
1.193040 -0.515705 0.498107
1.212344 -0.532474 0.473022
1.231648 -0.549242 0.447937
1.231648 -0.566011 0.447937
1.231648 -0.582780 0.447937
1.250952 -0.599549 0.422852
1.289560 -0.716930 0.372683
1.289560 -0.733699 0.372683
1.289560 -0.750468 0.372683
1.289560 -0.767237 0.372683
1.289560 -0.784006 0.372683
1.289560 -0.800774 0.372683
1.289560 -0.817543 0.372683
1.289560 -0.834312 0.372683
1.289560 -0.851081 0.372683
1.289560 -0.867849 0.372683
1.289560 -0.884618 0.372683
1.289560 -0.901387 0.372683
1.289560 -0.918156 0.372683
1.289560 -0.934925 0.372683
1.289560 -0.951693 0.372683
1.289560 -0.968462 0.372683
1.270256 -0.985231 0.397768
1.270256 -1.002000 0.397768
1.270256 -1.018769 0.397768
1.270256 -1.035537 0.397768
1.270256 -1.052306 0.397768
1.270256 -1.069075 0.397768
1.250952 -1.085844 0.422852
1.250952 -1.102612 0.422852
1.250952 -1.119381 0.422852
1.250952 -1.136150 0.422852
1.250952 -1.152919 0.422852
1.250952 -1.169688 0.422852
1.250952 -1.186456 0.422852
1.250952 -1.203225 0.422852
1.250952 -1.219994 0.422852
1.250952 -1.236763 0.422852
1.250952 -1.253532 0.422852
1.231648 -1.270300 0.447937
1.231648 -1.287069 0.447937
1.231648 -1.303838 0.447937
1.231648 -1.320607 0.447937
1.231648 -1.337376 0.447937
1.231648 -1.354144 0.447937
1.212344 -1.370913 0.473022
1.212344 -1.387682 0.473022
1.193040 -1.404451 0.498107
1.173736 -1.421220 0.523191
1.173736 -1.437988 0.523191
1.173736 -1.454757 0.523191
1.096520 -1.756595 0.623530
1.096520 -1.773364 0.623530
1.115824 -1.790133 0.598446
1.135128 -1.806902 0.573361
1.135128 -1.823670 0.573361
1.154432 -1.840439 0.548276
1.154432 -1.857208 0.548276
1.154432 -1.873976 0.548276
1.154432 -1.890745 0.548276
1.154432 -1.907514 0.548276
1.135128 -1.924283 0.573361
1.135128 -1.941052 0.573361
1.135128 -1.957820 0.573361
1.115824 -1.974589 0.598446
1.115824 -1.991358 0.598446
1.115824 -2.008127 0.598446
1.115824 -2.024896 0.598446
1.115824 -2.041664 0.598446
1.135128 -2.058433 0.573361
1.154432 -2.075202 0.548276
1.328168 -2.091971 0.322514
1.328168 -2.108740 0.322514
1.347472 -2.125508 0.297429
1.347472 -2.142277 0.297429
1.347472 -2.159046 0.297429
1.347472 -2.175815 0.297429
1.347472 -2.192584 0.297429
1.347472 -2.209352 0.297429
1.347472 -2.226121 0.297429
1.347472 -2.242890 0.297429
1.347472 -2.259659 0.297429
1.347472 -2.276428 0.297429
1.328168 -2.293196 0.322514
1.328168 -2.309965 0.322514
1.328168 -2.326734 0.322514
1.308864 -2.343503 0.347598
1.270256 -2.360271 0.397768
1.270256 -2.377040 0.397768
1.231648 -2.393809 0.447937
1.231648 -2.410578 0.447937
1.231648 -2.427346 0.447937
1.405384 -2.477653 0.222175
1.405384 -2.494421 0.222175
1.405384 -2.511191 0.222175
1.424688 -2.527959 0.197090
1.424688 -2.544728 0.197090
1.463295 -2.561497 0.146920
1.482599 -2.578266 0.121836
1.521207 -2.595034 0.071666
1.540511 -2.611803 0.046582
1.559815 -2.628572 0.021497
1.559815 -2.645341 0.021497
1.579119 -2.662109 -0.003588
1.598423 -2.678879 -0.028673
1.598423 -2.695647 -0.028673
1.598423 -2.712416 -0.028673
1.598423 -2.729185 -0.028673
1.598423 -2.745954 -0.028673
1.617727 -2.762722 -0.053757
1.617727 -2.779491 -0.053757
1.637031 -2.796260 -0.078842
1.637031 -2.813029 -0.078842
1.656335 -2.829797 -0.103927
1.656335 -2.846566 -0.103927
1.675639 -2.863335 -0.129012
1.675639 -2.880104 -0.129012
1.675639 -2.896873 -0.129012
1.694943 -2.913641 -0.154096
1.694943 -2.930410 -0.154096
1.694943 -2.947179 -0.154096
1.694943 -2.963948 -0.154096
1.714247 -2.980717 -0.179181
1.714247 -2.997485 -0.179181
1.714247 -3.014254 -0.179181
1.733551 -3.031023 -0.204266
1.733551 -3.047792 -0.204266
1.733551 -3.064561 -0.204266
1.733551 -3.081329 -0.204266
1.733551 -3.098098 -0.204266
1.733551 -3.114867 -0.204266
1.733551 -3.131636 -0.204266
1.733551 -3.148405 -0.204266
1.733551 -3.165174 -0.204266
1.733551 -3.181942 -0.204266
1.733551 -3.198711 -0.204266
1.733551 -3.215480 -0.204266
1.733551 -3.232248 -0.204266
1.733551 -3.249017 -0.204266
1.733551 -3.265786 -0.204266
1.714247 -3.282555 -0.179181
1.714247 -3.299324 -0.179181
1.694943 -3.316092 -0.154096
1.694943 -3.332861 -0.154096
1.675639 -3.349630 -0.129012
1.675639 -3.366399 -0.129012
1.656335 -3.383168 -0.103927
