0.141946 -0.097179 -0.381269
0.141975 -0.109718 -0.381346
0.142003 -0.128527 -0.381423
0.142031 -0.141066 -0.381499
0.142059 -0.153605 -0.381574
0.142086 -0.166144 -0.381647
0.126743 -0.184953 -0.340435
0.126769 -0.197492 -0.340504
0.126794 -0.210031 -0.340572
0.126819 -0.222571 -0.340639
0.126844 -0.241379 -0.340704
0.126867 -0.253919 -0.340768
0.111514 -0.266458 -0.299529
0.111536 -0.278997 -0.299588
0.111558 -0.297806 -0.299647
0.111579 -0.310345 -0.299704
0.111600 -0.322884 -0.299760
0.111620 -0.335423 -0.299814
0.111640 -0.354232 -0.299866
0.111659 -0.366771 -0.299918
0.111677 -0.379310 -0.299967
0.111695 -0.391850 -0.300016
0.111713 -0.410658 -0.300063
0.096344 -0.423198 -0.258782
0.096360 -0.435737 -0.258824
0.096375 -0.448276 -0.258865
0.096389 -0.467085 -0.258904
0.081014 -0.479624 -0.217606
0.081027 -0.492163 -0.217640
0.081040 -0.504702 -0.217674
0.065659 -0.523511 -0.176360
0.065669 -0.536050 -0.176389
0.065680 -0.548589 -0.176417
0.050294 -0.561128 -0.135090
0.050303 -0.579937 -0.135114
0.050311 -0.592476 -0.135136
0.034920 -0.605016 -0.093796
0.034927 -0.617555 -0.093814
0.034933 -0.636364 -0.093831
0.034939 -0.648903 -0.093846
0.034944 -0.661442 -0.093861
0.019548 -0.673981 -0.052506
0.019552 -0.692790 -0.052516
0.019555 -0.705329 -0.052525
0.004155 -0.717868 -0.011161
0.004157 -0.730407 -0.011166
0.004159 -0.749216 -0.011171
-0.011244 -0.761755 0.030202
-0.011243 -0.774295 0.030200
0.004161 -0.786834 -0.011178
0.019564 -0.805643 -0.052550
0.034964 -0.818182 -0.093915
0.050362 -0.830721 -0.135274
0.050360 -0.843260 -0.135267
0.065754 -0.862069 -0.176616
0.065750 -0.874608 -0.176607
0.065746 -0.887147 -0.176595
0.065741 -0.899687 -0.176582
0.065736 -0.918495 -0.176567
0.065729 -0.931034 -0.176550
0.050328 -0.943574 -0.135181
0.050320 -0.956113 -0.135162
0.050313 -0.974922 -0.135142
0.050305 -0.987461 -0.135119
0.019504 -1.000000 -0.052387
0.019495 -1.012539 -0.052365
0.004089 -1.031348 -0.010983
0.204076 -1.056426 -0.548152
0.219427 -1.068965 -0.589386
0.219409 -1.087774 -0.589336
0.219389 -1.100313 -0.589284
0.219369 -1.112853 -0.589230
0.219348 -1.125392 -0.589174
0.219327 -1.144201 -0.589116
0.219304 -1.156740 -0.589055
0.219281 -1.169279 -0.588993
0.219257 -1.181818 -0.588929
0.203869 -1.200627 -0.547597
0.203845 -1.213166 -0.547531
0.203819 -1.225705 -0.547462
0.188430 -1.238245 -0.506126
0.188404 -1.257053 -0.506057
0.188377 -1.269593 -0.505985
0.172987 -1.282132 -0.464646
0.157595 -1.294671 -0.423304
0.157568 -1.313480 -0.423232
0.172904 -1.326019 -0.464423
0.172875 -1.338558 -0.464346
0.188204 -1.351097 -0.505521
0.203529 -1.369906 -0.546683
0.218849 -1.382445 -0.587832
0.218815 -1.394984 -0.587741
0.234129 -1.407523 -0.628875
0.234093 -1.426332 -0.628778
0.234057 -1.438871 -0.628681
0.234020 -1.451411 -0.628582
0.249324 -1.463950 -0.669690
0.295295 -1.482759 -0.793168
0.310584 -1.495298 -0.834234
0.310540 -1.507837 -0.834118
0.356469 -1.520376 -0.957483
0.417682 -1.539185 -1.121901
0.432939 -1.551724 -1.162882
0.432887 -1.564263 -1.162744
0.448139 -1.576802 -1.203712
0.448086 -1.595611 -1.203569
0.432731 -1.608150 -1.162323
0.447979 -1.620690 -1.203282
0.463225 -1.633229 -1.244231
0.478466 -1.652038 -1.285168
0.493703 -1.664577 -1.326096
0.508937 -1.677116 -1.367014
0.524167 -1.689655 -1.407923
0.539394 -1.708464 -1.448822
0.539335 -1.721003 -1.448666
0.539277 -1.733542 -1.448509
0.554500 -1.746082 -1.489397
0.554441 -1.764890 -1.489239
0.554382 -1.777430 -1.489081
0.569601 -1.789969 -1.529960
0.569542 -1.802508 -1.529801
0.569483 -1.821317 -1.529643
0.584699 -1.833856 -1.570514
0.584641 -1.846395 -1.570356
0.584582 -1.858934 -1.570198
0.584523 -1.877743 -1.570041
0.584465 -1.890282 -1.569885
0.584407 -1.902821 -1.569729
0.599622 -1.915360 -1.610596
0.599564 -1.934169 -1.610442
0.599507 -1.946708 -1.610289
0.599451 -1.959248 -1.610137
0.599395 -1.971787 -1.609986
0.599339 -1.990596 -1.609836
0.599284 -2.003135 -1.609689
0.599229 -2.015674 -1.609542
0.599175 -2.028213 -1.609396
0.599121 -2.047022 -1.609252
0.599068 -2.059561 -1.609110
0.599016 -2.072100 -1.608970
0.598965 -2.084640 -1.608831
0.598914 -2.103448 -1.608694
0.583592 -2.115988 -1.567539
0.583542 -2.128527 -1.567405
0.583493 -2.141066 -1.567274
0.568172 -2.159875 -1.526121
0.568124 -2.172414 -1.525993
0.552803 -2.184953 -1.484840
0.552757 -2.197492 -1.484716
0.537436 -2.216301 -1.443564
0.522115 -2.228840 -1.402411
0.094635 0.692790 -0.299047
0.094661 0.680251 -0.299131
0.081427 0.661442 -0.257311
0.081454 0.648903 -0.257395
0.081481 0.636364 -0.257480
0.081508 0.623824 -0.257565
0.081535 0.605016 -0.257651
0.081562 0.592476 -0.257736
0.081589 0.579937 -0.257822
0.081616 0.567398 -0.257908
0.081644 0.548589 -0.257995
0.081671 0.536050 -0.258082
0.094962 0.523511 -0.300080
0.134773 0.510972 -0.425886
0.161320 0.492163 -0.509774
0.161350 0.479624 -0.509869
0.148121 0.467085 -0.468065
0.148151 0.454545 -0.468160
0.148181 0.435737 -0.468255
0.148212 0.423198 -0.468351
0.148242 0.410658 -0.468446
0.148272 0.398119 -0.468542
0.148303 0.379310 -0.468639
0.148333 0.366771 -0.468735
0.068765 0.354232 -0.217297
0.055521 0.341693 -0.175447
0.055548 0.322884 -0.175532
0.068847 0.310345 -0.217558
0.068874 0.297806 -0.217644
0.082174 0.285266 -0.259671
0.082202 0.266458 -0.259759
0.082230 0.253918 -0.259847
0.095531 0.241379 -0.301879
0.082285 0.228840 -0.260023
0.082313 0.210031 -0.260110
0.082340 0.197492 -0.260197
0.082368 0.184953 -0.260284
0.082395 0.172414 -0.260370
0.082422 0.153605 -0.260456
0.095727 0.141066 -0.302500
0.095755 0.128527 -0.302587
0.095782 0.115987 -0.302674
0.095810 0.097179 -0.302760
0.095837 0.084639 -0.302845
0.095864 0.072100 -0.302931
0.095890 0.059561 -0.303015
0.109198 0.040752 -0.345069
0.109226 0.028213 -0.345154
0.109252 0.015674 -0.345239
0.109279 0.003135 -0.345323
0.109305 -0.015674 -0.345407
0.109331 -0.028213 -0.345489
0.122642 -0.040752 -0.387550
0.122668 -0.053292 -0.387633
0.122694 -0.072100 -0.387715
0.122720 -0.084640 -0.387796
0.122745 -0.097179 -0.387876
0.122770 -0.109718 -0.387955
0.122795 -0.128527 -0.388034
0.122819 -0.141066 -0.388111
0.109554 -0.153605 -0.346191
0.109576 -0.166144 -0.346263
0.109599 -0.184953 -0.346334
0.109621 -0.197492 -0.346405
0.109643 -0.210031 -0.346474
0.109665 -0.222571 -0.346542
0.109686 -0.241379 -0.346609
0.096410 -0.253919 -0.304658
0.096430 -0.266458 -0.304720
0.096449 -0.278997 -0.304780
0.096468 -0.297806 -0.304840
0.096486 -0.310345 -0.304898
0.096504 -0.322884 -0.304955
0.096522 -0.335423 -0.305010
0.096539 -0.354232 -0.305063
0.083253 -0.366771 -0.263080
0.083268 -0.379310 -0.263129
0.083283 -0.391850 -0.263176
0.083298 -0.410658 -0.263223
0.083312 -0.423198 -0.263267
0.083326 -0.435737 -0.263310
0.083339 -0.448276 -0.263351
0.070044 -0.467085 -0.221340
0.070056 -0.479624 -0.221377
0.070067 -0.492163 -0.221412
0.056767 -0.504702 -0.179385
0.056777 -0.523511 -0.179417
0.056787 -0.536050 -0.179446
0.043483 -0.548589 -0.137406
0.043491 -0.561128 -0.137431
0.043498 -0.579937 -0.137455
0.030190 -0.592476 -0.095401
0.030197 -0.605016 -0.095421
0.030202 -0.617555 -0.095440
0.030208 -0.636364 -0.095457
0.030213 -0.648903 -0.095473
0.030217 -0.661442 -0.095488
0.016904 -0.673981 -0.053416
0.016907 -0.692790 -0.053427
0.016910 -0.705329 -0.053436
0.003593 -0.717868 -0.011354
0.003595 -0.730407 -0.011360
0.003597 -0.749216 -0.011365
-0.009723 -0.761755 0.030726
-0.009723 -0.774295 0.030724
0.003599 -0.786834 -0.011371
0.016918 -0.805643 -0.053461
0.016917 -0.818182 -0.053458
0.043550 -0.830721 -0.137618
0.043548 -0.843260 -0.137611
0.056860 -0.862069 -0.179677
0.056857 -0.874608 -0.179667
0.056853 -0.887147 -0.179656
0.056849 -0.899687 -0.179642
0.056844 -0.918495 -0.179627
0.056838 -0.931034 -0.179610
0.043520 -0.943574 -0.137523
0.043514 -0.956113 -0.137504
0.043507 -0.974922 -0.137484
0.043500 -0.987461 -0.137461
0.016865 -1.000000 -0.053295
0.016858 -1.012539 -0.053272
0.016851 -1.031348 -0.053249
0.176485 -1.043887 -0.557696
0.189761 -1.056426 -0.599649
0.189746 -1.068965 -0.599600
0.189730 -1.087774 -0.599550
0.189713 -1.100313 -0.599496
0.189696 -1.112853 -0.599442
0.189678 -1.125392 -0.599385
0.189659 -1.144201 -0.599326
0.176353 -1.156740 -0.557278
0.176334 -1.169279 -0.557216
0.176313 -1.181818 -0.557153
0.176293 -1.200627 -0.557087
0.162985 -1.213166 -0.515034
0.162964 -1.225705 -0.514967
0.149655 -1.238245 -0.472911
0.149633 -1.257053 -0.472842
0.136323 -1.269593 -0.430782
0.136301 -1.282132 -0.430712
0.136278 -1.294671 -0.430640
0.136255 -1.313480 -0.430567
0.149516 -1.326019 -0.472472
0.162773 -1.338558 -0.514364
0.176026 -1.351097 -0.556244
0.175998 -1.369906 -0.556157
0.202520 -1.382445 -0.639965
0.202490 -1.394984 -0.639870
0.202459 -1.407523 -0.639774
0.202428 -1.426332 -0.639675
0.202397 -1.438871 -0.639576
0.215632 -1.451411 -0.681401
0.255388 -1.463950 -0.807028
0.268610 -1.482759 -0.848810
0.295080 -1.495298 -0.932457
0.308291 -1.507837 -0.974204
0.334743 -1.520376 -1.057793
0.374421 -1.539185 -1.183175
0.400845 -1.551724 -1.266674
0.414029 -1.564263 -1.308337
0.413982 -1.576802 -1.308190
0.413936 -1.595611 -1.308042
0.400660 -1.608150 -1.266091
0.400613 -1.620690 -1.265943
0.387337 -1.633229 -1.223988
0.374059 -1.652038 -1.182030
0.374012 -1.664577 -1.181884
0.413649 -1.677116 -1.307136
0.426824 -1.689655 -1.348769
0.439996 -1.708464 -1.390392
0.439946 -1.721003 -1.390235
0.453115 -1.733542 -1.431848
0.453064 -1.746082 -1.431689
0.466230 -1.764890 -1.473292
0.466179 -1.777430 -1.473132
0.466129 -1.789969 -1.472972
0.479291 -1.802508 -1.514566
0.479240 -1.821317 -1.514405
0.479190 -1.833856 -1.514245
0.492349 -1.846395 -1.555831
0.492299 -1.858934 -1.555671
0.492249 -1.877743 -1.555512
0.492198 -1.890282 -1.555354
0.505356 -1.902821 -1.596933
0.505307 -1.915360 -1.596776
0.505257 -1.934169 -1.596619
0.505208 -1.946708 -1.596464
0.505159 -1.959248 -1.596310
0.505111 -1.971787 -1.596157
0.505063 -1.990596 -1.596005
0.505015 -2.003135 -1.595854
0.504968 -2.015674 -1.595705
0.504921 -2.028213 -1.595557
0.504875 -2.047022 -1.595411
0.504829 -2.059561 -1.595267
0.504784 -2.072100 -1.595123
0.504739 -2.084640 -1.594982
0.491488 -2.103448 -1.553109
0.491445 -2.115988 -1.552971
0.491401 -2.128527 -1.552835
0.478151 -2.141066 -1.510964
0.079530 0.736677 -0.303146
0.079552 0.717868 -0.303228
0.079574 0.705329 -0.303312
0.090748 0.692790 -0.345906
0.090770 0.680251 -0.345991
0.090793 0.661442 -0.346076
0.090815 0.648903 -0.346163
0.090838 0.636364 -0.346250
0.090861 0.623824 -0.346337
0.090884 0.605016 -0.346425
0.090907 0.592476 -0.346513
0.079777 0.579937 -0.304088
0.090954 0.567398 -0.346691
0.102130 0.548589 -0.389293
0.102154 0.536050 -0.389384
0.113331 0.523511 -0.431986
0.124508 0.510972 -0.474588
0.124532 0.492163 -0.474683
0.124557 0.479624 -0.474777
0.124582 0.467085 -0.474873
0.124607 0.454545 -0.474969
0.124633 0.435737 -0.475065
0.124658 0.423198 -0.475162
0.124684 0.410658 -0.475260
0.124709 0.398119 -0.475357
0.124735 0.379310 -0.475455
0.124761 0.366771 -0.475553
0.124786 0.354232 -0.475651
0.102499 0.341693 -0.390697
0.080205 0.322884 -0.305720
0.080229 0.310345 -0.305812
0.080253 0.297806 -0.305904
0.069115 0.285266 -0.263448
0.069139 0.266458 -0.263537
0.069162 0.253918 -0.263627
0.080349 0.241379 -0.306269
0.091536 0.228840 -0.348911
0.091561 0.210031 -0.349005
0.102748 0.197492 -0.391649
0.102773 0.184953 -0.391742
0.069301 0.172414 -0.264157
0.080491 0.153605 -0.306810
0.080515 0.141066 -0.306899
0.080538 0.128527 -0.306988
0.080561 0.115987 -0.307076
0.080584 0.097179 -0.307163
0.080607 0.084639 -0.307250
0.080629 0.072100 -0.307336
0.080652 0.059561 -0.307422
0.091845 0.040752 -0.350087
0.091868 0.028213 -0.350174
0.091890 0.015674 -0.350260
0.091913 0.003135 -0.350345
0.091935 -0.015674 -0.350430
0.091957 -0.028213 -0.350514
0.091979 -0.040752 -0.350597
0.092000 -0.053292 -0.350679
0.092021 -0.072100 -0.350760
0.092042 -0.084640 -0.350840
0.092063 -0.097179 -0.350919
0.092084 -0.109718 -0.350997
0.092104 -0.128527 -0.351074
0.092124 -0.141066 -0.351151
0.092144 -0.153605 -0.351226
0.092163 -0.166144 -0.351299
0.092182 -0.184953 -0.351372
0.092201 -0.197492 -0.351443
0.092219 -0.210031 -0.351513
0.092237 -0.222571 -0.351582
0.092255 -0.241379 -0.351650
0.081089 -0.253919 -0.309089
0.081106 -0.266458 -0.309152
0.081122 -0.278997 -0.309213
0.081138 -0.297806 -0.309274
0.081153 -0.310345 -0.309333
0.069981 -0.322884 -0.266748
0.069995 -0.335423 -0.266802
0.070009 -0.354232 -0.266855
0.070022 -0.366771 -0.266906
0.070035 -0.379310 -0.266956
0.070048 -0.391850 -0.267004
0.070060 -0.410658 -0.267051
0.070072 -0.423198 -0.267096
0.070084 -0.435737 -0.267140
0.058902 -0.448276 -0.224520
0.058913 -0.467085 -0.224559
0.058923 -0.479624 -0.224597
0.047737 -0.492163 -0.181962
0.047746 -0.504702 -0.181994
0.047754 -0.523511 -0.182026
0.036565 -0.536050 -0.139377
0.036573 -0.548589 -0.139404
0.036579 -0.561128 -0.139430
0.025387 -0.579937 -0.096767
0.025392 -0.592476 -0.096789
0.025398 -0.605016 -0.096809
0.025403 -0.617555 -0.096828
0.025407 -0.636364 -0.096846
0.014210 -0.648903 -0.054166
0.014214 -0.661442 -0.054180
0.014217 -0.673981 -0.054193
0.014220 -0.692790 -0.054204
0.003020 -0.705329 -0.011511
0.003022 -0.717868 -0.011519
0.003024 -0.730407 -0.011525
0.003025 -0.749216 -0.011530
-0.008178 -0.761755 0.031173
-0.008178 -0.774295 0.031170
0.003027 -0.786834 -0.011537
0.014229 -0.805643 -0.054238
0.014229 -0.818182 -0.054236
0.036629 -0.830721 -0.139620
0.036627 -0.843260 -0.139613
0.036625 -0.862069 -0.139605
0.036623 -0.874608 -0.139596
0.036620 -0.887147 -0.139584
0.047814 -0.899687 -0.182255
0.036613 -0.918495 -0.139558
0.036608 -0.931034 -0.139541
0.036604 -0.943574 -0.139524
0.036599 -0.956113 -0.139504
0.036593 -0.974922 -0.139483
0.025390 -0.987461 -0.096779
0.014185 -1.000000 -0.054070
0.014179 -1.012539 -0.054047
0.148450 -1.031348 -0.565851
0.148439 -1.043887 -0.565807
0.159605 -1.056426 -0.608370
0.159592 -1.068965 -0.608321
0.159579 -1.087774 -0.608270
0.159564 -1.100313 -0.608216
0.159550 -1.112853 -0.608160
0.159535 -1.125392 -0.608102
0.159519 -1.144201 -0.608042
0.148327 -1.156740 -0.565383
0.148311 -1.169279 -0.565321
0.148294 -1.181818 -0.565256
0.148277 -1.200627 -0.565190
0.137084 -1.213166 -0.522525
0.125890 -1.225705 -0.479856
0.125872 -1.238245 -0.479789
0.114677 -1.257053 -0.437117
0.114659 -1.269593 -0.437048
0.103463 -1.282132 -0.394373
0.114621 -1.294671 -0.436903
0.114602 -1.313480 -0.436829
0.125755 -1.326019 -0.479343
0.125734 -1.338558 -0.479264
0.136883 -1.351097 -0.521761
0.136861 -1.369906 -0.521676
0.159171 -1.382445 -0.606717
0.170311 -1.394984 -0.649177
0.181446 -1.407523 -0.691622
0.170259 -1.426332 -0.648979
0.181392 -1.438871 -0.691416
0.192522 -1.451411 -0.733841
0.225954 -1.463950 -0.861272
0.237072 -1.482759 -0.903652
0.270475 -1.495298 -1.030975
0.270441 -1.507837 -1.030845
0.281547 -1.520376 -1.073178
0.326051 -1.539185 -1.242816
0.337143 -1.551724 -1.285097
0.359358 -1.564263 -1.369774
0.359319 -1.576802 -1.369623
0.359279 -1.595611 -1.369471
0.348114 -1.608150 -1.326915
0.325821 -1.620690 -1.241939
0.314653 -1.633229 -1.199370
0.292352 -1.652038 -1.114367
0.292314 -1.664577 -1.114221
0.303407 -1.677116 -1.156502
0.325623 -1.689655 -1.241185
0.336708 -1.708464 -1.283438
0.347790 -1.721003 -1.325680
0.358870 -1.733542 -1.367913
0.358828 -1.746082 -1.367755
0.369905 -1.764890 -1.409976
0.369863 -1.777430 -1.409817
0.380938 -1.789969 -1.452029
0.380896 -1.802508 -1.451869
0.391968 -1.821317 -1.494072
0.391925 -1.833856 -1.493911
0.391883 -1.846395 -1.493750
0.402953 -1.858934 -1.535946
0.402911 -1.877743 -1.535785
0.402869 -1.890282 -1.535625
0.402827 -1.902821 -1.535466
0.413896 -1.915360 -1.577656
0.413854 -1.934169 -1.577498
0.413813 -1.946708 -1.577340
0.413772 -1.959248 -1.577185
0.413731 -1.971787 -1.577029
0.413691 -1.990596 -1.576876
0.413651 -2.003135 -1.576723
0.413611 -2.015674 -1.576572
0.413572 -2.028213 -1.576422
0.402424 -2.047022 -1.533930
0.073288 0.761755 -0.349582
0.073305 0.749216 -0.349665
0.073323 0.736677 -0.349749
0.073340 0.717868 -0.349833
0.073358 0.705329 -0.349918
0.073376 0.692790 -0.350003
0.073394 0.680251 -0.350089
0.073412 0.661442 -0.350175
0.082447 0.648903 -0.393274
0.082466 0.636364 -0.393362
0.073467 0.623824 -0.350439
0.073486 0.605016 -0.350528
0.073505 0.592476 -0.350618
0.091558 0.579937 -0.436732
0.091577 0.567398 -0.436824
0.091597 0.548589 -0.436916
0.100633 0.536050 -0.480019
0.109669 0.523511 -0.523122
0.109689 0.510972 -0.523218
0.100693 0.492163 -0.480305
0.100713 0.479624 -0.480401
0.100733 0.467085 -0.480498
0.100754 0.454545 -0.480595
0.100774 0.435737 -0.480692
0.100795 0.423198 -0.480790
0.100815 0.410658 -0.480889
0.100836 0.398119 -0.480987
0.100857 0.379310 -0.481087
0.100877 0.366771 -0.481185
0.091878 0.354232 -0.438259
0.091899 0.341693 -0.438356
0.091919 0.322884 -0.438455
0.100961 0.310345 -0.481585
0.100982 0.297806 -0.481685
0.055884 0.285266 -0.266568
0.055903 0.266458 -0.266659
0.064949 0.253918 -0.309805
0.055941 0.241379 -0.266839
0.064987 0.228840 -0.309988
0.065006 0.210031 -0.310080
0.065026 0.197492 -0.310172
0.056016 0.184953 -0.267197
0.056035 0.172414 -0.267285
0.056053 0.153605 -0.267374
0.056072 0.141066 -0.267462
0.065120 0.128527 -0.310624
0.065139 0.115987 -0.310713
0.065157 0.097179 -0.310801
0.065176 0.084639 -0.310889
0.065194 0.072100 -0.310977
0.065212 0.059561 -0.311063
0.065231 0.040752 -0.311150
0.065248 0.028213 -0.311235
0.074300 0.015674 -0.354409
0.074318 0.003135 -0.354495
0.074336 -0.015674 -0.354581
0.074353 -0.028213 -0.354665
0.074371 -0.040752 -0.354749
0.074388 -0.053292 -0.354832
0.074406 -0.072100 -0.354915
0.074422 -0.084640 -0.354995
0.074439 -0.097179 -0.355076
0.074456 -0.109718 -0.355155
0.074472 -0.128527 -0.355233
0.074488 -0.141066 -0.355310
0.074504 -0.153605 -0.355386
0.074520 -0.166144 -0.355460
0.074535 -0.184953 -0.355533
0.074551 -0.197492 -0.355606
0.074565 -0.210031 -0.355676
0.065538 -0.222571 -0.312618
0.065552 -0.241379 -0.312685
0.065566 -0.253919 -0.312750
0.065579 -0.266458 -0.312814
0.065592 -0.278997 -0.312876
0.065605 -0.297806 -0.312937
0.056573 -0.310345 -0.269851
0.056584 -0.322884 -0.269907
0.056596 -0.335423 -0.269962
0.056607 -0.354232 -0.270015
0.056618 -0.366771 -0.270068
0.056628 -0.379310 -0.270118
0.056639 -0.391850 -0.270167
0.056649 -0.410658 -0.270214
0.056658 -0.423198 -0.270260
0.047618 -0.435737 -0.227138
0.047627 -0.448276 -0.227179
0.047635 -0.467085 -0.227219
0.038592 -0.479624 -0.184082
0.038599 -0.492163 -0.184117
0.038606 -0.504702 -0.184150
0.038613 -0.523511 -0.184182
0.029566 -0.536050 -0.141028
0.029571 -0.548589 -0.141055
0.029577 -0.561128 -0.141081
0.020527 -0.579937 -0.097913
0.020532 -0.592476 -0.097935
0.020536 -0.605016 -0.097956
0.020540 -0.617555 -0.097975
0.020544 -0.636364 -0.097993
0.011490 -0.648903 -0.054807
0.011493 -0.661442 -0.054822
0.011496 -0.673981 -0.054834
0.011498 -0.692790 -0.054846
0.011500 -0.705329 -0.054855
0.002444 -0.717868 -0.011656
0.002445 -0.730407 -0.011662
0.002446 -0.749216 -0.011667
-0.006613 -0.761755 0.031542
-0.006612 -0.774295 0.031540
0.002447 -0.786834 -0.011673
0.002447 -0.805643 -0.011673
0.020562 -0.818182 -0.098081
0.020561 -0.830721 -0.098076
0.029616 -0.843260 -0.141266
0.029614 -0.862069 -0.141259
0.029612 -0.874608 -0.141249
0.029610 -0.887147 -0.141238
0.029607 -0.899687 -0.141225
0.029604 -0.918495 -0.141211
0.029600 -0.931034 -0.141194
0.029597 -0.943574 -0.141176
0.029593 -0.956113 -0.141156
0.029588 -0.974922 -0.141135
0.011470 -1.000000 -0.054710
0.120041 -1.012539 -0.572594
0.110992 -1.031348 -0.529430
0.129062 -1.043887 -0.615623
0.120013 -1.056426 -0.572463
0.120003 -1.068965 -0.572415
0.129030 -1.087774 -0.615474
0.129019 -1.100313 -0.615420
0.129007 -1.112853 -0.615363
0.128995 -1.125392 -0.615305
0.128982 -1.144201 -0.615244
0.128969 -1.156740 -0.615181
0.128955 -1.169279 -0.615115
0.119906 -1.181818 -0.571951
0.119892 -1.200627 -0.571884
0.110842 -1.213166 -0.528714
0.110827 -1.225705 -0.528645
0.110812 -1.238245 -0.528574
0.101761 -1.257053 -0.485401
0.101746 -1.269593 -0.485328
0.092694 -1.282132 -0.442152
0.092679 -1.294671 -0.442078
0.092663 -1.313480 -0.442003
0.101682 -1.326019 -0.485021
0.101665 -1.338558 -0.484941
0.110680 -1.351097 -0.527941
0.110661 -1.369906 -0.527855
0.119673 -1.382445 -0.570838
0.128681 -1.394984 -0.613809
0.146711 -1.407523 -0.699814
0.155713 -1.426332 -0.742749
0.164711 -1.438871 -0.785671
0.173706 -1.451411 -0.828579
0.200728 -1.463950 -0.957473
0.209714 -1.482759 -1.000336
0.227706 -1.495298 -1.086157
0.236684 -1.507837 -1.128984
0.254663 -1.520376 -1.214744
0.272634 -1.539185 -1.300465
0.281601 -1.551724 -1.343237
0.290566 -1.564263 -1.385998
0.290534 -1.576802 -1.385845
0.290501 -1.595611 -1.385692
0.281474 -1.608150 -1.342632
0.272446 -1.620690 -1.299567
0.263417 -1.633229 -1.256499
0.254387 -1.652038 -1.213426
0.227354 -1.664577 -1.084481
0.236325 -1.677116 -1.127271
0.245294 -1.689655 -1.170051
0.245262 -1.708464 -1.169899
0.254228 -1.721003 -1.212666
0.263191 -1.733542 -1.255422
0.272153 -1.746082 -1.298169
0.272120 -1.764890 -1.298011
0.281079 -1.777430 -1.340747
0.281046 -1.789969 -1.340588
0.290003 -1.802508 -1.383313
0.298958 -1.821317 -1.426031
0.298924 -1.833856 -1.425870
0.298891 -1.846395 -1.425709
0.298857 -1.858934 -1.425549
0.307811 -1.877743 -1.468256
0.307777 -1.890282 -1.468096
0.307743 -1.902821 -1.467937
0.054618 0.805643 -0.352728
0.054630 0.793103 -0.352810
0.054643 0.774295 -0.352892
0.054656 0.761755 -0.352975
0.061394 0.749216 -0.396487
0.061407 0.736677 -0.396571
0.061420 0.717868 -0.396656
0.061433 0.705329 -0.396742
0.061446 0.692790 -0.396828
0.061460 0.680251 -0.396915
0.061473 0.661442 -0.397003
0.061487 0.648903 -0.397091
0.061501 0.636364 -0.397180
0.061515 0.623824 -0.397270
0.061529 0.605016 -0.397360
0.068267 0.592476 -0.440879
0.068282 0.579937 -0.440971
0.075020 0.567398 -0.484490
0.075035 0.548589 -0.484584
0.075049 0.536050 -0.484678
0.075064 0.523511 -0.484774
0.075079 0.510972 -0.484870
0.075094 0.492163 -0.484967
0.075109 0.479624 -0.485063
0.075124 0.467085 -0.485161
0.075139 0.454545 -0.485259
0.075155 0.435737 -0.485358
0.075170 0.423198 -0.485457
0.075185 0.410658 -0.485556
0.075201 0.398119 -0.485656
0.075216 0.379310 -0.485756
0.075232 0.366771 -0.485856
0.075247 0.354232 -0.485956
0.075263 0.341693 -0.486057
0.075279 0.322884 -0.486158
0.075294 0.310345 -0.486259
0.075310 0.297806 -0.486360
0.075326 0.285266 -0.486461
0.075341 0.266458 -0.486562
0.061898 0.253918 -0.399746
0.061913 0.241379 -0.399844
0.061928 0.228840 -0.399940
0.055212 0.210031 -0.356566
0.055227 0.197492 -0.356660
0.055241 0.184953 -0.356755
0.041789 0.172414 -0.269880
0.041803 0.153605 -0.269969
0.041817 0.141066 -0.270058
0.048565 0.128527 -0.313639
0.048579 0.115987 -0.313729
0.048593 0.097179 -0.313818
0.048606 0.084639 -0.313907
0.048620 0.072100 -0.313995
0.048634 0.059561 -0.314082
0.048647 0.040752 -0.314170
0.055397 0.028213 -0.357761
0.055411 0.015674 -0.357849
0.055424 0.003135 -0.357936
0.055438 -0.015674 -0.358023
0.055451 -0.028213 -0.358108
0.055464 -0.040752 -0.358192
0.055477 -0.053292 -0.358276
0.055490 -0.072100 -0.358359
0.055502 -0.084640 -0.358441
0.055515 -0.097179 -0.358522
0.055527 -0.109718 -0.358602
0.055539 -0.128527 -0.358680
0.055551 -0.141066 -0.358758
0.055563 -0.153605 -0.358835
0.055575 -0.166144 -0.358910
0.055586 -0.184953 -0.358984
0.055598 -0.197492 -0.359058
0.048866 -0.210031 -0.315585
0.048877 -0.222571 -0.315653
0.048887 -0.241379 -0.315720
0.048897 -0.253919 -0.315785
0.048907 -0.266458 -0.315850
0.048917 -0.278997 -0.315912
0.042181 -0.297806 -0.272412
0.042190 -0.310345 -0.272470
0.042199 -0.322884 -0.272527
0.042208 -0.335423 -0.272582
0.042216 -0.354232 -0.272636
0.042224 -0.366771 -0.272689
0.042232 -0.379310 -0.272739
0.042240 -0.391850 -0.272789
0.042247 -0.410658 -0.272837
0.035506 -0.423198 -0.229299
0.035512 -0.435737 -0.229343
0.035519 -0.448276 -0.229384
0.035525 -0.467085 -0.229424
0.028781 -0.479624 -0.185869
0.028786 -0.492163 -0.185904
0.028791 -0.504702 -0.185937
0.022045 -0.523511 -0.142367
0.022049 -0.536050 -0.142397
0.022054 -0.548589 -0.142425
0.015305 -0.561128 -0.098839
0.015308 -0.579937 -0.098863
0.015312 -0.592476 -0.098886
0.015315 -0.605016 -0.098907
0.015318 -0.617555 -0.098926
0.008567 -0.636364 -0.055324
0.008569 -0.648903 -0.055339
0.008571 -0.661442 -0.055354
0.008573 -0.673981 -0.055367
0.008575 -0.692790 -0.055378
0.008576 -0.705329 -0.055387
0.001822 -0.717868 -0.011769
0.001823 -0.730407 -0.011775
0.001824 -0.749216 -0.011780
-0.004931 -0.761755 0.031848
-0.004931 -0.774295 0.031846
-0.004931 -0.786834 0.031844
0.001825 -0.805643 -0.011787
0.008580 -0.818182 -0.055411
0.015334 -0.830721 -0.099028
0.022087 -0.843260 -0.142638
0.022085 -0.862069 -0.142630
0.022084 -0.874608 -0.142620
0.022082 -0.887147 -0.142608
0.022080 -0.899687 -0.142596
0.022078 -0.918495 -0.142581
0.022075 -0.931034 -0.142564
0.015320 -0.943574 -0.098936
0.022069 -0.956113 -0.142526
0.008557 -0.987461 -0.055263
0.001800 -1.000000 -0.011627
0.082781 -1.012539 -0.534609
0.089517 -1.031348 -0.578110
0.089510 -1.043887 -0.578065
0.089503 -1.056426 -0.578019
0.096235 -1.068965 -0.621501
0.096227 -1.087774 -0.621448
0.096219 -1.100313 -0.621393
0.096210 -1.112853 -0.621336
0.096201 -1.125392 -0.621277
0.096191 -1.144201 -0.621216
0.096181 -1.156740 -0.621152
0.096171 -1.169279 -0.621086
0.096161 -1.181818 -0.621018
0.089412 -1.200627 -0.577435
0.082663 -1.213166 -0.533846
0.082652 -1.225705 -0.533776
0.075902 -1.238245 -0.490183
0.075891 -1.257053 -0.490112
0.069140 -1.269593 -0.446516
0.069129 -1.282132 -0.446444
0.069117 -1.294671 -0.446369
0.069106 -1.313480 -0.446293
0.075831 -1.326019 -0.489729
0.075819 -1.338558 -0.489647
0.075806 -1.351097 -0.489564
0.082528 -1.369906 -0.532978
0.089249 -1.382445 -0.576379
0.095967 -1.394984 -0.619766
0.109414 -1.407523 -0.706606
0.136306 -1.426332 -0.880284
0.156458 -1.438871 -1.010423
0.176596 -1.451411 -1.140480
0.183292 -1.463950 -1.183724
0.176555 -1.482759 -1.140214
0.183250 -1.495298 -1.183451
0.196657 -1.507837 -1.270032
0.203346 -1.520376 -1.313234
0.210034 -1.539185 -1.356425
0.223428 -1.551724 -1.442924
0.223404 -1.564263 -1.442770
0.216672 -1.576802 -1.399296
0.216648 -1.595611 -1.399141
0.209916 -1.608150 -1.355663
0.209892 -1.620690 -1.355508
0.209868 -1.633229 -1.355352
0.209844 -1.652038 -1.355195
0.156126 -1.664577 -1.008278
0.156104 -1.677116 -1.008136
0.162796 -1.689655 -1.051355
0.169486 -1.708464 -1.094564
0.176175 -1.721003 -1.137762
0.176152 -1.733542 -1.137611
0.182839 -1.746082 -1.180796
0.182815 -1.764890 -1.180642
0.189500 -1.777430 -1.223815
0.189476 -1.789969 -1.223660
0.196159 -1.802508 -1.266821
0.042722 0.830721 -0.398431
0.042731 0.818182 -0.398512
0.042740 0.805643 -0.398594
0.042748 0.793103 -0.398675
0.042757 0.774295 -0.398758
0.042766 0.761755 -0.398841
0.047460 0.749216 -0.442618
0.047469 0.736677 -0.442702
0.047478 0.717868 -0.442787
0.047488 0.705329 -0.442874
0.047497 0.692790 -0.442961
0.047506 0.680251 -0.443048
0.047516 0.661442 -0.443137
0.047525 0.648903 -0.443226
0.047535 0.636364 -0.443316
0.047545 0.623824 -0.443407
0.047555 0.605016 -0.443498
0.047564 0.592476 -0.443590
0.052259 0.579937 -0.487376
0.056954 0.567398 -0.531159
0.056964 0.548589 -0.531255
0.056975 0.536050 -0.531351
0.052300 0.523511 -0.487755
0.052310 0.510972 -0.487852
0.052321 0.492163 -0.487949
0.052331 0.479624 -0.488046
0.057027 0.467085 -0.531841
0.052352 0.454545 -0.488243
0.052363 0.435737 -0.488343
0.052374 0.423198 -0.488442
0.052384 0.410658 -0.488542
0.047709 0.398119 -0.444936
0.047719 0.379310 -0.445035
0.052417 0.366771 -0.488844
0.052428 0.354232 -0.488945
0.052438 0.341693 -0.489046
0.052449 0.322884 -0.489148
0.052460 0.310345 -0.489249
0.052471 0.297806 -0.489351
0.052482 0.285266 -0.489453
0.052493 0.266458 -0.489555
0.052504 0.253918 -0.489657
0.052515 0.241379 -0.489759
0.052526 0.228840 -0.489860
0.047848 0.210031 -0.446231
0.043169 0.197492 -0.402595
0.038489 0.184953 -0.358949
0.038499 0.172414 -0.359043
0.038509 0.153605 -0.359137
0.033827 0.141066 -0.315476
0.033837 0.128527 -0.315567
0.033847 0.115987 -0.315658
0.033856 0.097179 -0.315748
0.033866 0.084639 -0.315837
0.033875 0.072100 -0.315926
0.033885 0.059561 -0.316014
0.033894 0.040752 -0.316102
0.033904 0.028213 -0.316188
0.033913 0.015674 -0.316275
0.038616 0.003135 -0.360137
0.038625 -0.015674 -0.360224
0.038635 -0.028213 -0.360310
0.038644 -0.040752 -0.360395
0.038653 -0.053292 -0.360479
0.038662 -0.072100 -0.360563
0.038671 -0.084640 -0.360645
0.038679 -0.097179 -0.360727
0.038688 -0.109718 -0.360807
0.038696 -0.128527 -0.360886
0.038705 -0.141066 -0.360965
0.038713 -0.153605 -0.361042
0.034024 -0.166144 -0.317312
0.034032 -0.184953 -0.317384
0.034039 -0.197492 -0.317455
0.034047 -0.210031 -0.317526
0.034054 -0.222571 -0.317594
0.034062 -0.241379 -0.317662
0.034069 -0.253919 -0.317727
0.034076 -0.266458 -0.317792
0.029383 -0.278997 -0.274027
0.029389 -0.297806 -0.274088
0.029396 -0.310345 -0.274146
0.029402 -0.322884 -0.274203
0.029408 -0.335423 -0.274259
0.029413 -0.354232 -0.274313
0.029419 -0.366771 -0.274366
0.029425 -0.379310 -0.274417
0.029430 -0.391850 -0.274466
0.029435 -0.410658 -0.274515
0.024738 -0.423198 -0.230710
0.024743 -0.435737 -0.230753
0.024747 -0.448276 -0.230795
0.020048 -0.467085 -0.186974
0.020053 -0.479624 -0.187012
0.020056 -0.492163 -0.187047
0.015356 -0.504702 -0.143211
0.015359 -0.523511 -0.143242
0.015363 -0.536050 -0.143272
0.010661 -0.548589 -0.099422
0.010663 -0.561128 -0.099447
0.010666 -0.579937 -0.099471
0.010668 -0.592476 -0.099494
0.010671 -0.605016 -0.099515
0.010673 -0.617555 -0.099534
0.005969 -0.636364 -0.055664
0.005970 -0.648903 -0.055680
0.005972 -0.661442 -0.055694
0.005973 -0.673981 -0.055707
0.005974 -0.692790 -0.055719
0.001269 -0.705329 -0.011833
0.001270 -0.717868 -0.011841
0.001270 -0.730407 -0.011847
0.001271 -0.749216 -0.011853
-0.003436 -0.761755 0.032044
-0.003436 -0.774295 0.032042
0.001272 -0.786834 -0.011859
0.005978 -0.805643 -0.055754
0.005978 -0.818182 -0.055751
0.010684 -0.830721 -0.099637
0.015389 -0.843260 -0.143515
0.015388 -0.862069 -0.143507
0.015387 -0.874608 -0.143497
0.015385 -0.887147 -0.143485
0.010679 -0.899687 -0.099591
0.010677 -0.918495 -0.099577
0.010676 -0.931034 -0.099562
0.015379 -0.943574 -0.143423
0.005962 -0.987461 -0.055603
0.057681 -1.000000 -0.537935
0.057677 -1.012539 -0.537897
0.062370 -1.031348 -0.581665
0.062365 -1.043887 -0.581620
0.062360 -1.056426 -0.581574
0.062355 -1.068965 -0.581525
0.062349 -1.087774 -0.581473
0.062343 -1.100313 -0.581420
0.062337 -1.112853 -0.581364
0.062331 -1.125392 -0.581307
0.062325 -1.144201 -0.581246
0.062318 -1.156740 -0.581185
0.062311 -1.169279 -0.581120
0.062304 -1.181818 -0.581054
0.062297 -1.200627 -0.580986
0.057594 -1.213166 -0.537129
0.057587 -1.225705 -0.537059
0.057579 -1.238245 -0.536986
0.052876 -1.257053 -0.493126
0.052868 -1.269593 -0.493053
0.048165 -1.282132 -0.449189
0.048157 -1.294671 -0.449114
0.048149 -1.313480 -0.449038
0.052835 -1.326019 -0.492740
0.052826 -1.338558 -0.492659
0.052817 -1.351097 -0.492575
0.062193 -1.369906 -0.580016
0.066874 -1.382445 -0.623674
0.076244 -1.394984 -0.711055
0.085609 -1.407523 -0.798396
0.123069 -1.426332 -1.147754
0.127735 -1.438871 -1.191272
0.127721 -1.451411 -1.191138
0.127707 -1.463950 -1.191004
0.127692 -1.482759 -1.190867
0.127677 -1.495298 -1.190729
0.132340 -1.507837 -1.234220
0.137002 -1.520376 -1.277697
0.141663 -1.539185 -1.321162
0.150997 -1.551724 -1.408211
0.155654 -1.564263 -1.451643
0.155637 -1.576802 -1.451486
0.150947 -1.595611 -1.407746
0.150930 -1.608150 -1.407588
0.099419 -1.664577 -0.927191
0.104084 -1.677116 -0.970696
0.108748 -1.689655 -1.014191
0.113410 -1.708464 -1.057674
0.113394 -1.721003 -1.057527
0.113378 -1.733542 -1.057379
0.118039 -1.746082 -1.100845
0.122699 -1.764890 -1.144302
0.122683 -1.777430 -1.144149
0.122666 -1.789969 -1.143996
0.122650 -1.802508 -1.143843
0.122633 -1.821317 -1.143690
0.127225 -1.890282 -1.186513
0.127209 -1.902821 -1.186359
0.127192 -1.915360 -1.186206
-0.602485 0.974922 -0.145089
-0.602550 0.962382 -0.145104
-0.602615 0.943574 -0.145120
-0.645403 0.931035 -0.155424
-0.645470 0.918495 -0.155440
-0.688253 0.905956 -0.165743
-0.688320 0.887147 -0.165759
-0.688389 0.874608 -0.165776
-0.688458 0.862069 -0.165793
-0.688529 0.849530 -0.165810
-0.688601 0.830721 -0.165827
-0.688675 0.818182 -0.165845
-0.688749 0.805643 -0.165863
-0.688825 0.793103 -0.165881
-0.688902 0.774295 -0.165900
-0.688980 0.761755 -0.165918
-0.689060 0.749216 -0.165938
-0.689140 0.736677 -0.165957
-0.689222 0.717868 -0.165977
-0.646600 0.705329 -0.155713
-0.646685 0.692790 -0.155733
-0.646771 0.680251 -0.155754
-0.646858 0.661442 -0.155775
-0.646946 0.648903 -0.155796
-0.647035 0.636364 -0.155817
-0.647125 0.623824 -0.155839
-0.647216 0.605016 -0.155861
-0.604599 0.592476 -0.145598
-0.604692 0.579937 -0.145620
-0.604786 0.567398 -0.145643
-0.604881 0.548589 -0.145666
-0.604975 0.536050 -0.145689
-0.605072 0.523511 -0.145712
-0.605169 0.510972 -0.145735
-0.605266 0.492163 -0.145759
-0.605365 0.479624 -0.145782
-0.605464 0.467085 -0.145806
-0.605564 0.454545 -0.145830
-0.605664 0.435737 -0.145854
-0.605765 0.423198 -0.145879
-0.605867 0.410658 -0.145903
-0.605968 0.398119 -0.145928
-0.648793 0.379310 -0.156240
-0.648897 0.366771 -0.156266
-0.649001 0.354232 -0.156291
-0.606381 0.341693 -0.146027
-0.606484 0.322884 -0.146052
-0.606589 0.310345 -0.146077
-0.563959 0.297806 -0.135811
-0.564061 0.285266 -0.135836
-0.564165 0.266458 -0.135861
-0.564268 0.253918 -0.135885
-0.564371 0.241379 -0.135910
-0.564474 0.228840 -0.135935
-0.564577 0.210031 -0.135960
-0.564680 0.197492 -0.135985
-0.564783 0.184953 -0.136010
-0.564885 0.172414 -0.136034
-0.564987 0.153605 -0.136059
-0.522331 0.141066 -0.125786
-0.522431 0.128527 -0.125810
-0.522530 0.115987 -0.125834
-0.522629 0.097179 -0.125858
-0.522727 0.084639 -0.125882
-0.522825 0.072100 -0.125905
-0.480146 0.059561 -0.115627
-0.480241 0.040752 -0.115650
-0.480334 0.028213 -0.115673
-0.437639 0.015674 -0.105391
-0.437730 0.003135 -0.105413
-0.395022 -0.015674 -0.095128
-0.395109 -0.028213 -0.095149
-0.352387 -0.040752 -0.084861
-0.309656 -0.053292 -0.074570
-0.309735 -0.072100 -0.074590
-0.309813 -0.084640 -0.074608
-0.309890 -0.097179 -0.074627
-0.309967 -0.109718 -0.074645
-0.310042 -0.128527 -0.074663
-0.310116 -0.141066 -0.074681
-0.267354 -0.153605 -0.064383
-0.310261 -0.166144 -0.074716
-0.353166 -0.184953 -0.085048
-0.353238 -0.197492 -0.085066
-0.353308 -0.210031 -0.085083
-0.353378 -0.222571 -0.085099
-0.310603 -0.241379 -0.074799
-0.267818 -0.253919 -0.064495
-0.225021 -0.266458 -0.054189
-0.225080 -0.278997 -0.054203
-0.225136 -0.297806 -0.054217
-0.225191 -0.310345 -0.054230
-0.182375 -0.322884 -0.043919
-0.182426 -0.335423 -0.043931
-0.139597 -0.354232 -0.033617
-0.139643 -0.366771 -0.033629
-0.139688 -0.379310 -0.033639
-0.096843 -0.391850 -0.023321
-0.096884 -0.410658 -0.023331
-0.096922 -0.423198 -0.023341
-0.139854 -0.435737 -0.033679
-0.139891 -0.448276 -0.033688
-0.139928 -0.467085 -0.033697
-0.139963 -0.479624 -0.033706
-0.139997 -0.492163 -0.033714
-0.140029 -0.504702 -0.033721
-0.097158 -0.523511 -0.023397
-0.097186 -0.536050 -0.023404
-0.097213 -0.548589 -0.023410
-0.097238 -0.561128 -0.023416
-0.097261 -0.579937 -0.023422
-0.054372 -0.592476 -0.013094
-0.054392 -0.605016 -0.013099
-0.054410 -0.617555 -0.013103
-0.054427 -0.636364 -0.013107
-0.011524 -0.648903 -0.002775
-0.011538 -0.661442 -0.002779
-0.011550 -0.673981 -0.002781
-0.011560 -0.692790 -0.002784
0.031355 -0.705329 0.007551
0.031347 -0.717868 0.007549
0.031340 -0.730407 0.007547
0.031336 -0.749216 0.007546
0.074260 -0.761755 0.017883
0.074258 -0.774295 0.017883
0.074257 -0.786834 0.017882
0.031329 -0.805643 0.007545
-0.011593 -0.818182 -0.002792
-0.054509 -0.830721 -0.013127
-0.054503 -0.843260 -0.013125
-0.097410 -0.862069 -0.023458
-0.097401 -0.874608 -0.023456
-0.097390 -0.887147 -0.023453
-0.097378 -0.899687 -0.023450
-0.054454 -0.918495 -0.013114
-0.054440 -0.931034 -0.013110
-0.054424 -0.943574 -0.013106
-0.011495 -0.956113 -0.002768
-0.011478 -0.974922 -0.002764
-0.011459 -0.987461 -0.002759
-0.611611 -1.012539 -0.147287
-0.611569 -1.031348 -0.147276
-0.611524 -1.043887 -0.147266
-0.611477 -1.056426 -0.147254
-0.611428 -1.068965 -0.147242
-0.654191 -1.087774 -0.157541
-0.654136 -1.100313 -0.157527
-0.654079 -1.112853 -0.157513
-0.696822 -1.125392 -0.167807
-0.653956 -1.144201 -0.157484
-0.653892 -1.156740 -0.157468
-0.653825 -1.169279 -0.157452
-0.653757 -1.181818 -0.157436
-0.653686 -1.200627 -0.157419
-0.653613 -1.213166 -0.157401
-0.653538 -1.225705 -0.157383
-0.653462 -1.238245 -0.157365
-0.653382 -1.257053 -0.157346
-0.567712 -1.269593 -0.136715
-0.524832 -1.282132 -0.126389
-0.439135 -1.294671 -0.105751
-0.353422 -1.313480 -0.085110
-0.353351 -1.326019 -0.085093
-0.438906 -1.338558 -0.105696
-0.738312 -1.351097 -0.177798
-0.780968 -1.369906 -0.188071
-0.780865 -1.382445 -0.188046
-0.866017 -1.426332 -0.208552
-0.865903 -1.438871 -0.208524
-0.908507 -1.451411 -0.218784
-0.908388 -1.463950 -0.218755
-0.950975 -1.482759 -0.229011
-0.993549 -1.495298 -0.239264
-1.036110 -1.507837 -0.249513
-1.035978 -1.520376 -0.249481
-1.078523 -1.539185 -0.259727
-1.121056 -1.551724 -0.269970
-1.163575 -1.564263 -0.280209
-1.206084 -1.576802 -0.290446
-1.205938 -1.595611 -0.290411
-1.248431 -1.608150 -0.300644
-1.248282 -1.620690 -0.300608
-1.248132 -1.633229 -0.300572
-1.247981 -1.652038 -0.300536
-1.247829 -1.664577 -0.300499
-1.247677 -1.677116 -0.300462
-1.247524 -1.689655 -0.300425
-1.247371 -1.708464 -0.300388
-1.247217 -1.721003 -0.300352
-1.247063 -1.733542 -0.300314
-1.246909 -1.746082 -0.300277
-1.246754 -1.764890 -0.300240
-1.203981 -1.777430 -0.289939
-1.203827 -1.789969 -0.289902
-1.161053 -1.802508 -0.279602
-1.118277 -1.821317 -0.269300
-1.075499 -1.833856 -0.258999
-1.075351 -1.846395 -0.258963
-1.075204 -1.858934 -0.258928
-1.116942 -1.946708 -0.268979
-1.159404 -1.959248 -0.279205
-1.159258 -1.971787 -0.279169
-1.201714 -1.990596 -0.289393
-1.244163 -2.003135 -0.299616
-1.244017 -2.015674 -0.299581
-1.243871 -2.028213 -0.299546
-1.243727 -2.047022 -0.299511
-1.286172 -2.059561 -0.309733
-1.286029 -2.072100 -0.309698
-1.285888 -2.084640 -0.309664
-1.285748 -2.103448 -0.309630
-1.370631 -2.128527 -0.330072
-1.370495 -2.141066 -0.330039
-1.412933 -2.159875 -0.340259
-1.412801 -2.172414 -0.340227
-1.412670 -2.184953 -0.340195
-1.455110 -2.197492 -0.350416
-1.454983 -2.216301 -0.350385
-1.454858 -2.228840 -0.350355
0.022785 0.849530 -0.399987
0.025289 0.830721 -0.443941
0.025293 0.818182 -0.444021
0.025298 0.805643 -0.444103
0.025303 0.793103 -0.444184
0.025307 0.774295 -0.444267
0.025312 0.761755 -0.444350
0.025317 0.749216 -0.444435
0.025322 0.736677 -0.444519
0.025327 0.717868 -0.444605
0.027831 0.705329 -0.488561
0.027836 0.692790 -0.488647
0.027841 0.680251 -0.488735
0.027846 0.661442 -0.488825
0.027851 0.648903 -0.488914
0.027856 0.636364 -0.489005
0.027861 0.623824 -0.489097
0.027866 0.605016 -0.489189
0.027872 0.592476 -0.489282
0.027877 0.579937 -0.489376
0.030381 0.567398 -0.533339
0.032886 0.548589 -0.577302
0.030392 0.536050 -0.533532
0.027899 0.523511 -0.489757
0.027904 0.510972 -0.489855
0.027910 0.492163 -0.489952
0.027915 0.479624 -0.490049
0.027921 0.467085 -0.490149
0.027927 0.454545 -0.490247
0.027932 0.435737 -0.490347
0.027938 0.423198 -0.490447
0.027944 0.410658 -0.490547
0.027950 0.398119 -0.490648
0.027955 0.379310 -0.490749
0.027961 0.366771 -0.490850
0.027967 0.354232 -0.490952
0.027973 0.341693 -0.491053
0.027978 0.322884 -0.491156
0.027984 0.310345 -0.491257
0.025489 0.297806 -0.447462
0.025495 0.285266 -0.447562
0.025501 0.266458 -0.447663
0.025507 0.253918 -0.447763
0.025512 0.241379 -0.447863
0.025518 0.228840 -0.447963
0.025524 0.210031 -0.448063
0.023028 0.197492 -0.404247
0.023033 0.184953 -0.404344
0.013029 0.172414 -0.228716
0.015537 0.153605 -0.272744
0.018045 0.141066 -0.316771
0.018050 0.128527 -0.316863
0.018055 0.115987 -0.316954
0.018060 0.097179 -0.317044
0.018065 0.084639 -0.317133
0.018070 0.072100 -0.317223
0.018075 0.059561 -0.317311
0.018081 0.040752 -0.317399
0.018085 0.028213 -0.317486
0.018090 0.015674 -0.317573
0.018095 0.003135 -0.317658
0.018100 -0.015674 -0.317743
0.020609 -0.028213 -0.361789
0.020614 -0.040752 -0.361874
0.020619 -0.053292 -0.361959
0.020624 -0.072100 -0.362043
0.020628 -0.084640 -0.362125
0.020633 -0.097179 -0.362207
0.020638 -0.109718 -0.362288
0.018137 -0.128527 -0.318389
0.018141 -0.141066 -0.318465
0.018146 -0.153605 -0.318540
0.018150 -0.166144 -0.318614
0.018154 -0.184953 -0.318687
0.018158 -0.197492 -0.318758
0.018162 -0.210031 -0.318829
0.018166 -0.222571 -0.318897
0.018170 -0.241379 -0.318965
0.018173 -0.253919 -0.319031
0.018177 -0.266458 -0.319097
0.015674 -0.278997 -0.275152
0.015677 -0.297806 -0.275213
0.015681 -0.310345 -0.275271
0.015684 -0.322884 -0.275328
0.015687 -0.335423 -0.275384
0.015690 -0.354232 -0.275439
0.015693 -0.366771 -0.275492
0.015696 -0.379310 -0.275543
0.015699 -0.391850 -0.275593
0.015702 -0.410658 -0.275641
0.013196 -0.423198 -0.231657
0.013199 -0.435737 -0.231700
0.013201 -0.448276 -0.231742
0.010695 -0.467085 -0.187742
0.010697 -0.479624 -0.187779
0.010699 -0.492163 -0.187815
0.008191 -0.504702 -0.143799
0.008193 -0.523511 -0.143830
0.008195 -0.536050 -0.143860
0.008197 -0.548589 -0.143889
0.005688 -0.561128 -0.099855
0.005690 -0.579937 -0.099880
0.005691 -0.592476 -0.099902
0.005692 -0.605016 -0.099923
0.005693 -0.617555 -0.099943
0.003184 -0.636364 -0.055893
0.003185 -0.648903 -0.055908
0.003186 -0.661442 -0.055923
0.003186 -0.673981 -0.055936
0.003187 -0.692790 -0.055947
0.003188 -0.705329 -0.055957
0.000677 -0.717868 -0.011890
0.000678 -0.730407 -0.011896
0.000678 -0.749216 -0.011901
-0.001833 -0.761755 0.032175
-0.001833 -0.774295 0.032173
0.000678 -0.786834 -0.011908
0.000678 -0.805643 -0.011908
0.003189 -0.818182 -0.055980
0.005699 -0.830721 -0.100046
0.008209 -0.843260 -0.144104
0.008208 -0.862069 -0.144096
0.008208 -0.874608 -0.144086
0.008207 -0.887147 -0.144074
0.005696 -0.899687 -0.100000
0.005696 -0.918495 -0.099986
0.005695 -0.931034 -0.099970
0.005694 -0.943574 -0.099953
0.005693 -0.956113 -0.099934
0.003182 -0.974922 -0.055852
0.003180 -0.987461 -0.055831
0.033275 -1.000000 -0.584135
0.033273 -1.012539 -0.584095
0.033270 -1.031348 -0.584053
0.033268 -1.043887 -0.584008
0.033265 -1.056426 -0.583961
0.033262 -1.068965 -0.583912
0.035764 -1.087774 -0.627836
0.035761 -1.100313 -0.627780
0.033253 -1.112853 -0.583750
0.033250 -1.125392 -0.583693
0.033246 -1.144201 -0.583632
0.035747 -1.156740 -0.627537
0.035744 -1.169279 -0.627470
0.033235 -1.181818 -0.583439
0.033231 -1.200627 -0.583370
0.033227 -1.213166 -0.583300
0.030719 -1.225705 -0.539263
0.030715 -1.238245 -0.539190
0.028206 -1.257053 -0.495150
0.028202 -1.269593 -0.495076
0.025693 -1.282132 -0.451033
0.025689 -1.294671 -0.450958
0.025684 -1.313480 -0.450881
0.028184 -1.326019 -0.494763
0.028179 -1.338558 -0.494681
0.030678 -1.351097 -0.538545
0.030673 -1.369906 -0.538457
0.030668 -1.382445 -0.538367
0.063160 -1.407523 -1.108755
0.065650 -1.426332 -1.152465
0.065642 -1.438871 -1.152335
0.068131 -1.451411 -1.196027
0.068123 -1.463950 -1.195892
0.073107 -1.482759 -1.283373
0.075593 -1.495298 -1.327027
0.078080 -1.507837 -1.370667
0.080565 -1.520376 -1.414295
0.080556 -1.539185 -1.414144
0.080547 -1.551724 -1.413990
0.083032 -1.564263 -1.457601
0.083023 -1.576802 -1.457443
0.083014 -1.595611 -1.457285
0.083005 -1.608150 -1.457126
0.085488 -1.620690 -1.500718
0.085478 -1.633229 -1.500555
0.082977 -1.652038 -1.456643
0.050537 -1.664577 -0.887164
0.050529 -1.677116 -0.887027
0.053018 -1.689655 -0.930717
0.055506 -1.708464 -0.974396
0.055498 -1.721003 -0.974252
0.057985 -1.733542 -1.017917
0.057977 -1.746082 -1.017770
0.057968 -1.764890 -1.017623
0.060455 -1.777430 -1.061271
0.060446 -1.789969 -1.061122
0.060438 -1.802508 -1.060972
0.060429 -1.821317 -1.060822
0.060421 -1.833856 -1.060673
0.060412 -1.846395 -1.060523
0.062898 -1.858934 -1.104152
0.060395 -1.877743 -1.060225
0.060345 -1.959248 -1.059337
0.060336 -1.971787 -1.059191
0.060328 -1.990596 -1.059046
0.002797 0.887147 -0.400389
0.003105 0.874608 -0.444415
0.003106 0.862069 -0.444492
0.003106 0.849530 -0.444571
0.003107 0.830721 -0.444650
0.003414 0.818182 -0.488672
0.003415 0.805643 -0.488752
0.003415 0.793103 -0.488834
0.003416 0.774295 -0.488916
0.003417 0.761755 -0.488999
0.003724 0.749216 -0.533020
0.003725 0.736677 -0.533104
0.003725 0.717868 -0.533190
0.003726 0.705329 -0.533276
0.003727 0.692790 -0.533364
0.003727 0.680251 -0.533452
0.003728 0.661442 -0.533542
0.003728 0.648903 -0.533632
0.003422 0.636364 -0.489786
0.003423 0.623824 -0.489878
0.003423 0.605016 -0.489970
0.003424 0.592476 -0.490063
0.003425 0.579937 -0.490157
0.003732 0.567398 -0.534191
0.003733 0.548589 -0.534287
0.004041 0.536050 -0.578321
0.003734 0.523511 -0.534481
0.003735 0.510972 -0.534579
0.003429 0.492163 -0.490734
0.003429 0.479624 -0.490832
0.003430 0.467085 -0.490931
0.003431 0.454545 -0.491030
0.003431 0.435737 -0.491130
0.003432 0.423198 -0.491230
0.003126 0.410658 -0.447376
0.003126 0.398119 -0.447475
0.003127 0.379310 -0.447575
0.003128 0.366771 -0.447675
0.003436 0.354232 -0.491736
0.003436 0.341693 -0.491838
0.003130 0.322884 -0.447975
0.003131 0.310345 -0.448075
0.003131 0.297806 -0.448177
0.003132 0.285266 -0.448277
0.003133 0.266458 -0.448377
0.003133 0.253918 -0.448478
0.003134 0.241379 -0.448578
0.003135 0.228840 -0.448679
0.002828 0.210031 -0.404795
0.002522 0.197492 -0.360902
0.002215 0.184953 -0.317000
0.001601 0.172414 -0.229081
0.001909 0.153605 -0.273180
0.002217 0.141066 -0.317277
0.002525 0.128527 -0.361375
0.002526 0.115987 -0.361468
0.002219 0.097179 -0.317550
0.002219 0.084639 -0.317640
0.002220 0.072100 -0.317729
0.002221 0.059561 -0.317818
0.002221 0.040752 -0.317906
0.002222 0.028213 -0.317993
0.002222 0.015674 -0.318080
0.002223 0.003135 -0.318165
0.002224 -0.015674 -0.318250
0.002224 -0.028213 -0.318334
0.002225 -0.040752 -0.318418
0.002225 -0.053292 -0.318500
0.002226 -0.072100 -0.318582
0.002226 -0.084640 -0.318662
0.002227 -0.097179 -0.318742
0.002228 -0.109718 -0.318820
0.002228 -0.128527 -0.318897
0.002229 -0.141066 -0.318974
0.002229 -0.153605 -0.319049
0.002230 -0.166144 -0.319123
0.002230 -0.184953 -0.319196
0.002231 -0.197492 -0.319267
0.002231 -0.210031 -0.319338
0.002232 -0.222571 -0.319407
0.002232 -0.241379 -0.319475
0.001925 -0.253919 -0.275467
0.001925 -0.266458 -0.275530
0.001926 -0.278997 -0.275592
0.001926 -0.297806 -0.275652
0.001926 -0.310345 -0.275711
0.001927 -0.322884 -0.275768
0.001927 -0.335423 -0.275824
0.001928 -0.354232 -0.275879
0.001928 -0.366771 -0.275932
0.001928 -0.379310 -0.275983
0.001621 -0.391850 -0.231935
0.001621 -0.410658 -0.231982
0.001621 -0.423198 -0.232026
0.001621 -0.435737 -0.232070
0.001314 -0.448276 -0.188002
0.001314 -0.467085 -0.188041
0.001314 -0.479624 -0.188079
0.001006 -0.492163 -0.143996
0.001006 -0.504702 -0.144029
0.001007 -0.523511 -0.144060
0.001007 -0.536050 -0.144090
0.000699 -0.548589 -0.099989
0.000699 -0.561128 -0.100015
0.000699 -0.579937 -0.100039
0.000699 -0.592476 -0.100062
0.000699 -0.605016 -0.100083
0.000391 -0.617555 -0.055964
0.000391 -0.636364 -0.055982
0.000391 -0.648903 -0.055997
0.000391 -0.661442 -0.056012
0.000391 -0.673981 -0.056025
0.000392 -0.692790 -0.056037
0.000083 -0.705329 -0.011901
0.000083 -0.717868 -0.011909
0.000083 -0.730407 -0.011915
0.000083 -0.749216 -0.011920
-0.000225 -0.761755 0.032227
-0.000225 -0.774295 0.032225
-0.000225 -0.786834 0.032223
0.000083 -0.805643 -0.011927
0.000392 -0.818182 -0.056070
0.000700 -0.830721 -0.100206
0.000700 -0.843260 -0.100200
0.000700 -0.862069 -0.100192
0.000700 -0.874608 -0.100183
0.000700 -0.887147 -0.100172
0.000700 -0.899687 -0.100160
0.000700 -0.918495 -0.100146
0.000700 -0.931034 -0.100130
0.000699 -0.943574 -0.100113
0.000699 -0.956113 -0.100094
0.000699 -0.974922 -0.100073
0.003780 -0.987461 -0.541042
0.004088 -1.000000 -0.585067
0.004088 -1.012539 -0.585028
0.004087 -1.031348 -0.584985
