-0.505476 -4.031068 -0.457833
-0.538142 -4.058458 -0.487420
-0.603406 -4.085903 -0.546533
-0.603473 -4.113227 -0.546593
-0.636139 -4.140606 -0.576181
-0.668806 -4.167981 -0.605769
-0.701472 -4.195353 -0.635356
-0.701536 -4.222663 -0.635414
-0.734202 -4.250027 -0.665000
-0.766867 -4.277386 -0.694587
-0.799532 -4.304741 -0.724173
-0.832196 -4.332092 -0.753759
-0.864860 -4.359438 -0.783343
-0.897522 -4.386779 -0.812927
-0.962790 -4.414164 -0.872044
-1.028058 -4.441541 -0.931160
-1.060717 -4.468865 -0.960741
-1.125983 -4.496227 -1.019855
-1.158639 -4.523539 -1.049433
-1.191293 -4.550846 -1.079010
-1.223945 -4.578146 -1.108584
-1.256595 -4.605443 -1.138156
-1.289242 -4.632732 -1.167726
-1.289279 -4.659986 -1.167760
-1.321921 -4.687268 -1.197326
-1.354560 -4.714544 -1.226888
-1.354592 -4.741790 -1.226917
-1.354621 -4.769034 -1.226943
-1.387251 -4.796300 -1.256498
-1.387276 -4.823540 -1.256521
-1.419901 -4.850799 -1.286070
-1.419921 -4.878036 -1.286088
-1.419939 -4.905272 -1.286105
-1.419956 -4.932509 -1.286120
-1.419970 -4.959745 -1.286133
-1.419983 -4.986980 -1.286144
-1.419993 -5.014217 -1.286154
-1.420001 -5.041453 -1.286161
-1.420007 -5.068690 -1.286166
-1.420010 -5.095928 -1.286169
-1.420011 -5.123166 -1.286170
-1.420010 -5.150406 -1.286169
-1.420007 -5.177648 -1.286166
-1.420002 -5.204890 -1.286162
-1.419993 -5.232134 -1.286154
-1.419983 -5.259381 -1.286144
-1.387375 -5.286642 -1.256610
-1.387359 -5.313894 -1.256595
-1.354744 -5.341167 -1.227055
-1.322126 -5.368447 -1.197511
-1.322102 -5.395712 -1.197489
-1.289476 -5.423006 -1.167938
-1.256845 -5.450309 -1.138383
-1.256812 -5.477589 -1.138353
-2.211948 -2.359051 -1.031542
-2.251975 -2.386568 -1.050209
-2.292004 -2.414086 -1.068877
-2.292008 -2.441602 -1.068878
-2.332043 -2.469121 -1.087549
-2.372081 -2.496642 -1.106220
-2.372087 -2.524159 -1.106223
-2.372096 -2.551674 -1.106227
-2.372104 -2.579190 -1.106231
-2.412146 -2.606711 -1.124905
-2.412156 -2.634225 -1.124909
-2.412167 -2.661737 -1.124914
-2.412178 -2.689249 -1.124919
-2.412190 -2.716759 -1.124925
-2.412203 -2.744267 -1.124931
-2.412217 -2.771774 -1.124937
-2.412231 -2.799279 -1.124944
-2.412247 -2.826782 -1.124952
-2.412263 -2.854282 -1.124959
-2.412440 -3.101671 -1.125042
-1.813745 -3.704589 -0.845840
-1.773878 -3.731916 -0.827248
-1.813872 -3.759331 -0.845899
-1.813936 -3.786695 -0.845929
-1.814000 -3.814054 -0.845959
-1.814064 -3.841409 -0.845989
-1.814128 -3.868760 -0.846019
-1.814192 -3.896105 -0.846049
-1.814256 -3.923447 -0.846078
-1.814320 -3.950783 -0.846108
-1.814384 -3.978116 -0.846138
-1.814447 -4.005444 -0.846168
-1.814510 -4.032768 -0.846197
-1.814573 -4.060087 -0.846226
-1.854545 -4.087446 -0.864867
-1.854605 -4.114757 -0.864895
-1.854665 -4.142063 -0.864923
-1.894629 -4.169406 -0.883561
-1.894686 -4.196703 -0.883587
-1.934645 -4.224036 -0.902222
-1.934698 -4.251325 -0.902247
-1.934751 -4.278610 -0.902271
-1.894904 -4.305853 -0.883689
-1.934852 -4.333168 -0.902319
-1.934902 -4.360442 -0.902342
-1.934950 -4.387712 -0.902364
-1.974888 -4.415011 -0.920989
-1.974933 -4.442274 -0.921010
-1.974976 -4.469533 -0.921030
-1.975017 -4.496789 -0.921049
-1.975057 -4.524042 -0.921068
-2.014979 -4.551319 -0.939686
-2.015014 -4.578566 -0.939702
-2.015048 -4.605809 -0.939718
-2.054958 -4.633072 -0.958330
-2.054987 -4.660310 -0.958344
-2.055015 -4.687546 -0.958356
-2.055041 -4.714779 -0.958368
-2.055064 -4.742011 -0.958380
-2.094956 -4.769255 -0.976983
-2.094975 -4.796483 -0.976992
-2.094991 -4.823708 -0.976999
-2.095006 -4.850932 -0.977006
-2.095020 -4.878155 -0.977013
-2.095031 -4.905377 -0.977018
-2.095040 -4.932599 -0.977022
-2.095047 -4.959820 -0.977025
-2.095051 -4.987041 -0.977027
-2.095054 -5.014261 -0.977029
-2.095055 -5.041482 -0.977029
-2.095053 -5.068703 -0.977028
-2.095049 -5.095924 -0.977027
-2.095044 -5.123147 -0.977024
-2.095035 -5.150369 -0.977020
-2.095024 -5.177593 -0.977015
-2.095011 -5.204818 -0.977008
-2.094995 -5.232045 -0.977001
-2.094976 -5.259273 -0.976992
-2.055112 -5.286519 -0.958402
-2.055089 -5.313753 -0.958391
-2.015220 -5.341008 -0.939798
-2.015192 -5.368248 -0.939785
-1.975318 -5.395515 -0.921190
-1.975285 -5.422763 -0.921174
-0.965258 -2.687329 -0.487629
-0.925864 -2.714776 -0.467728
-0.925821 -2.742193 -0.467707
-0.925781 -2.769608 -0.467686
-0.925738 -2.797022 -0.467665
-0.886353 -2.824467 -0.447768
-0.886311 -2.851880 -0.447747
-0.807515 -2.934174 -0.407941
-0.807472 -2.961583 -0.407919
-0.846759 -2.988959 -0.427766
1.471673 -3.676816 0.743460
1.550362 -3.704297 0.783212
1.668376 -3.731820 0.842831
1.786407 -3.759331 0.902457
1.943787 -3.786867 0.981963
2.101192 -3.814376 1.061481
2.416016 -3.841949 1.220524
2.652163 -3.869382 1.339820
2.730878 -3.896736 1.379586
2.730883 -3.924074 1.379588
1.747792 -4.060041 0.882950
1.747855 -4.087357 0.882982
1.747919 -4.114667 0.883014
1.747981 -4.141974 0.883046
1.787341 -4.169322 0.902929
1.826697 -4.196662 0.922812
1.866052 -4.223997 0.942693
1.905403 -4.251325 0.962572
1.944752 -4.278646 0.982450
1.984097 -4.305961 1.002327
2.062735 -4.333300 1.042053
2.102070 -4.360599 1.061925
2.141402 -4.387891 1.081794
2.180729 -4.415176 1.101661
2.220051 -4.442455 1.121526
2.259367 -4.469727 1.141388
2.298678 -4.496992 1.161247
2.337984 -4.524251 1.181104
2.377284 -4.551502 1.200957
2.416578 -4.578747 1.220808
2.495143 -4.605989 1.260497
2.534421 -4.633218 1.280340
2.573693 -4.660441 1.300179
2.652226 -4.687652 1.339853
2.770008 -4.714835 1.399354
2.848507 -4.742013 1.439009
2.887735 -4.769201 1.458827
2.887705 -4.796407 1.458812
2.848424 -4.823634 1.438968
2.809146 -4.850858 1.419125
2.769871 -4.878080 1.399284
2.730599 -4.905301 1.379445
2.652084 -4.932537 1.339781
2.612819 -4.959755 1.319945
2.573555 -4.986973 1.300109
1.984616 -5.422739 1.002589
1.984580 -5.449989 1.002571
1.945302 -5.477270 0.982728
1.906020 -5.504559 0.962884
1.866732 -5.531856 0.943036
-0.951813 -2.659941 -0.412596
-0.951771 -2.687359 -0.412578
-0.951729 -2.714776 -0.412560
-0.951685 -2.742193 -0.412541
-0.911201 -2.769638 -0.394992
-0.870722 -2.797084 -0.377445
-0.870679 -2.824497 -0.377426
-0.830207 -2.851941 -0.359882
-0.830163 -2.879353 -0.359863
-0.830120 -2.906764 -0.359844
-0.830074 -2.934174 -0.359824
-0.830029 -2.961583 -0.359805
-0.829985 -2.988991 -0.359786
-0.870369 -3.016366 -0.377292
-0.870325 -3.043772 -0.377273
1.472384 -3.676761 0.638256
1.512862 -3.704190 0.655803
1.634155 -3.731719 0.708381
1.836312 -3.759331 0.796013
1.957657 -3.786826 0.848614
2.038578 -3.814266 0.883692
2.321711 -3.841854 1.006426
2.443088 -3.869278 1.059041
2.604912 -3.896694 1.129189
2.604931 -3.924033 1.129198
2.200696 -4.033116 0.953968
2.200740 -4.060433 0.953987
2.160366 -4.087713 0.936486
2.160411 -4.115021 0.936505
2.120045 -4.142292 0.919007
2.160501 -4.169623 0.936544
2.160546 -4.196918 0.936563
2.200995 -4.224238 0.954098
2.281847 -4.251577 0.989146
2.322286 -4.278881 1.006675
2.322317 -4.306156 1.006689
2.322347 -4.333427 1.006702
2.362775 -4.360715 1.024227
2.362801 -4.387977 1.024238
2.403219 -4.415253 1.041759
2.443632 -4.442522 1.059277
2.484038 -4.469783 1.076793
2.564825 -4.497044 1.111812
2.605215 -4.524289 1.129321
2.645599 -4.551528 1.146827
2.726353 -4.578756 1.181832
2.807092 -4.605969 1.216832
2.887815 -4.633169 1.251824
2.968522 -4.660355 1.286809
3.049211 -4.687526 1.321786
3.089530 -4.714712 1.339264
3.089492 -4.741921 1.339247
3.089453 -4.769127 1.339231
3.049069 -4.796359 1.321725
3.008688 -4.823587 1.304221
2.968310 -4.850813 1.286717
2.927935 -4.878038 1.269215
2.887564 -4.905261 1.251715
2.806855 -4.932502 1.216729
2.120689 -5.449934 0.919286
2.120649 -5.477183 0.919269
2.039940 -5.504497 0.884283
2.039895 -5.531757 0.884263
1.959173 -5.559091 0.849272
-0.926341 -2.742223 -0.358174
-0.844052 -2.797114 -0.326356
-0.885105 -2.824497 -0.342230
-0.885061 -2.851910 -0.342213
-0.885015 -2.879322 -0.342195
-0.884971 -2.906733 -0.342178
-0.884926 -2.934143 -0.342161
-0.843782 -2.961583 -0.326252
1.661231 -3.731719 0.642322
1.743469 -3.759188 0.674120
1.948993 -3.786784 0.753587
2.195678 -3.814376 0.848968
2.360179 -3.841854 0.912573
2.442450 -3.869255 0.944384
2.442483 -3.896600 0.944396
2.483629 -3.923963 0.960306
2.442550 -3.951275 0.944422
2.401477 -3.978582 0.928541
2.360410 -4.005882 0.912663
2.360448 -4.033202 0.912677
2.360486 -4.060518 0.912692
2.442711 -4.087877 0.944485
2.483835 -4.115203 0.960386
2.483863 -4.142504 0.960396
2.483890 -4.169800 0.960407
2.483916 -4.197092 0.960417
2.483942 -4.224379 0.960427
2.483967 -4.251661 0.960437
2.483992 -4.278939 0.960446
2.484015 -4.306213 0.960455
2.484038 -4.333483 0.960464
2.484059 -4.360748 0.960472
2.484081 -4.388010 0.960480
2.525164 -4.415280 0.976366
2.566241 -4.442544 0.992248
2.607312 -4.469800 1.008128
2.648376 -4.497049 1.024006
2.730485 -4.524291 1.055754
2.771532 -4.551524 1.071625
2.812571 -4.578750 1.087492
2.935684 -4.605947 1.135095
3.017734 -4.633136 1.166820
3.058738 -4.660335 1.182674
3.099733 -4.687526 1.198525
3.140720 -4.714712 1.214373
3.140681 -4.741921 1.214358
3.140642 -4.769127 1.214343
3.099589 -4.796359 1.198469
3.099550 -4.823561 1.198455
2.196827 -5.449907 0.849413
2.155786 -5.477183 0.833544
2.114742 -5.504467 0.817674
2.114696 -5.531724 0.817656
-0.859143 -2.797114 -0.284264
-0.900929 -2.824497 -0.298090
-0.900885 -2.851910 -0.298075
-0.900838 -2.879322 -0.298060
-0.900794 -2.906733 -0.298045
-0.900748 -2.934143 -0.298030
0.855081 -3.675815 0.282920
0.855171 -3.703184 0.282950
1.356520 -3.731280 0.448831
1.691008 -3.759087 0.559503
2.025673 -3.786826 0.670234
2.360482 -3.814471 0.781012
2.527940 -3.841928 0.836418
2.569826 -3.869298 0.850277
2.611708 -3.896662 0.864135
2.611733 -3.924002 0.864143
2.611758 -3.951336 0.864151
2.444412 -3.978582 0.808782
2.402611 -4.005882 0.794951
2.402650 -4.033202 0.794964
2.486415 -4.115183 0.822679
2.486446 -4.142484 0.822689
2.486477 -4.169781 0.822700
2.486506 -4.197073 0.822709
2.528352 -4.224379 0.836555
2.528378 -4.251661 0.836563
2.528493 -4.388010 0.836601
2.528513 -4.415268 0.836608
2.528533 -4.442522 0.836615
2.570343 -4.469783 0.850448
2.612147 -4.497038 0.864280
2.653944 -4.524285 0.878109
2.695735 -4.551526 0.891937
2.779298 -4.578759 0.919585
2.862846 -4.605978 0.947229
2.946379 -4.633182 0.974867
3.029895 -4.660372 1.002500
3.113393 -4.687549 1.030127
3.155117 -4.714738 1.043932
3.155081 -4.741947 1.043920
3.155043 -4.769154 1.043908
3.155006 -4.796359 1.043895
3.113222 -4.823587 1.030071
3.071441 -4.850813 1.016246
3.029664 -4.878038 1.002423
2.946147 -4.905282 0.974790
2.904377 -4.932502 0.960970
2.236061 -5.477153 0.739845
2.194285 -5.504435 0.726022
2.152504 -5.531724 0.712198
2.110720 -5.559021 0.698373
-0.957339 -2.632551 -0.265069
-0.957296 -2.659971 -0.265057
-0.957252 -2.687389 -0.265045
-0.957207 -2.714806 -0.265032
-0.914691 -2.742253 -0.253260
-0.872181 -2.769699 -0.241490
-0.872136 -2.797114 -0.241478
-0.872090 -2.824528 -0.241465
-0.872044 -2.851941 -0.241452
-0.871997 -2.879353 -0.241439
-0.871952 -2.906764 -0.241427
-0.871903 -2.934174 -0.241413
-0.829398 -2.961616 -0.229644
-0.829350 -2.989024 -0.229631
-0.829302 -3.016430 -0.229618
-0.829254 -3.043836 -0.229605
-0.829204 -3.071241 -0.229591
-0.829156 -3.098644 -0.229578
-0.829107 -3.126047 -0.229564
-0.829058 -3.153447 -0.229550
-0.829010 -3.180848 -0.229537
-0.828960 -3.208246 -0.229523
-0.828912 -3.235644 -0.229510
-0.828864 -3.263040 -0.229497
-0.828816 -3.290435 -0.229483
-0.828768 -3.317830 -0.229470
-0.828720 -3.345222 -0.229457
-0.828673 -3.372614 -0.229444
-0.828626 -3.400004 -0.229431
-0.828581 -3.427394 -0.229418
-0.828535 -3.454782 -0.229406
-0.828491 -3.482169 -0.229393
-0.828447 -3.509555 -0.229381
-0.828404 -3.536940 -0.229369
-0.828363 -3.564323 -0.229358
-0.828321 -3.591706 -0.229346
-0.828282 -3.619088 -0.229336
0.783148 -3.648319 0.216839
1.037585 -3.676061 0.287288
1.122477 -3.703554 0.310792
1.419457 -3.731338 0.393021
1.801479 -3.759188 0.498795
2.056308 -3.786826 0.569352
2.438668 -3.814499 0.675220
2.693645 -3.841985 0.745819
2.821144 -3.869373 0.781121
2.863648 -3.896725 0.792889
2.906147 -3.924070 0.804657
2.863670 -3.951397 0.792896
2.863681 -3.978725 0.792898
2.354507 -4.333382 0.651918
2.354543 -4.360651 0.651928
2.397008 -4.387938 0.663686
2.439467 -4.415218 0.675442
2.481920 -4.442492 0.687196
2.524368 -4.469759 0.698949
2.566808 -4.497019 0.710700
2.566825 -4.524262 0.710705
2.609256 -4.551511 0.722453
2.609267 -4.578747 0.722456
2.651687 -4.605986 0.734201
2.736507 -4.633218 0.757687
2.948519 -4.660414 0.816389
3.033296 -4.687605 0.839862
3.033272 -4.714819 0.839855
3.075637 -4.742013 0.851585
3.117993 -4.769201 0.863313
3.117960 -4.796407 0.863304
3.117927 -4.823611 0.863294
3.075515 -4.850837 0.851551
3.033107 -4.878060 0.839809
2.948328 -4.905301 0.816336
2.905927 -4.932520 0.804596
2.821156 -4.959755 0.781124
2.269921 -5.449907 0.628498
2.227515 -5.477183 0.616756
2.185105 -5.504467 0.605014
2.142690 -5.531757 0.593270
2.100272 -5.559057 0.581525
-0.926084 -2.742253 -0.207768
-0.926038 -2.769669 -0.207758
-0.883000 -2.797114 -0.198102
-0.882953 -2.824528 -0.198092
-0.882906 -2.851941 -0.198081
-0.882859 -2.879353 -0.198071
-0.882813 -2.906764 -0.198060
-0.882764 -2.934174 -0.198049
-0.839729 -2.961616 -0.188394
-0.839681 -2.989024 -0.188383
-0.796651 -3.016463 -0.178730
-0.796601 -3.043869 -0.178719
-0.796551 -3.071274 -0.178707
-0.796501 -3.098678 -0.178696
-0.839435 -3.126047 -0.188328
-0.839385 -3.153447 -0.188317
-0.839336 -3.180848 -0.188306
-0.796299 -3.208280 -0.178651
-0.796247 -3.235677 -0.178639
-0.796197 -3.263073 -0.178628
-0.839140 -3.290435 -0.188262
-0.796097 -3.317863 -0.178606
-0.796047 -3.345255 -0.178594
-0.795999 -3.372646 -0.178583
-0.795949 -3.400036 -0.178572
-0.795901 -3.427425 -0.178562
-0.838856 -3.454782 -0.188199
-0.838811 -3.482169 -0.188188
-0.838767 -3.509555 -0.188178
0.921650 -3.648503 0.206773
1.007585 -3.675999 0.226053
1.179392 -3.703614 0.264598
1.737886 -3.731719 0.389897
2.081860 -3.759461 0.467068
2.296942 -3.787016 0.515322
2.598102 -3.814573 0.582888
2.813245 -3.842013 0.631155
2.942330 -3.869389 0.660116
2.985358 -3.896736 0.669769
2.985363 -3.924074 0.669770
2.168884 -4.251398 0.486592
2.168936 -4.278681 0.486604
2.168987 -4.305961 0.486615
2.211994 -4.333269 0.496264
2.297954 -4.360599 0.515549
2.297995 -4.387865 0.515558
2.340988 -4.415153 0.525204
2.383976 -4.442434 0.534848
2.469934 -4.496976 0.554133
2.469959 -4.524222 0.554139
2.512926 -4.551479 0.563778
2.555887 -4.578729 0.573417
2.555902 -4.605964 0.573420
2.598852 -4.633204 0.583056
2.598863 -4.660432 0.583058
2.942304 -4.687643 0.660110
2.942289 -4.714859 0.660107
2.985193 -4.742061 0.669732
2.985173 -4.769273 0.669728
3.028065 -4.796466 0.679350
3.070949 -4.823654 0.688972
3.028013 -4.850877 0.679339
3.027984 -4.878080 0.679332
2.985053 -4.905301 0.669701
2.899222 -4.932537 0.650444
2.856297 -4.959755 0.640814
2.255380 -5.395446 0.505998
2.255343 -5.422688 0.505989
2.255304 -5.449934 0.505980
2.169474 -5.477242 0.486724
2.169429 -5.504497 0.486714
2.126485 -5.531790 0.477080
-0.935262 -2.714836 -0.161776
-0.891800 -2.742283 -0.154259
-0.891754 -2.769699 -0.154250
-0.935124 -2.797084 -0.161752
-0.935078 -2.824497 -0.161744
-0.891613 -2.851941 -0.154226
-0.891565 -2.879353 -0.154218
-0.891519 -2.906764 -0.154210
-0.891470 -2.934174 -0.154201
-0.891422 -2.961583 -0.154193
-0.891374 -2.988991 -0.154185
-0.847912 -3.016430 -0.146667
-0.847863 -3.043836 -0.146659
-0.804406 -3.071274 -0.139142
-0.804356 -3.098678 -0.139133
-0.804304 -3.126080 -0.139124
-0.847662 -3.153447 -0.146624
-0.847613 -3.180848 -0.146615
-0.847563 -3.208246 -0.146607
-0.804099 -3.235677 -0.139089
-0.847464 -3.263040 -0.146590
-0.847415 -3.290435 -0.146581
-0.847366 -3.317830 -0.146573
-0.847317 -3.345222 -0.146564
-0.847269 -3.372614 -0.146556
-0.847221 -3.400004 -0.146547
-0.847175 -3.427394 -0.146539
-0.847128 -3.454782 -0.146531
-0.890438 -3.536911 -0.154023
-0.890396 -3.564296 -0.154016
0.844059 -3.648380 0.146001
1.234291 -3.676302 0.213501
1.364478 -3.703853 0.236020
1.798426 -3.731770 0.311081
2.276106 -3.759616 0.393708
2.449908 -3.787111 0.423771
2.536834 -3.814526 0.438807
2.667201 -3.841949 0.461357
2.754117 -3.869334 0.476392
1.842803 -4.087262 0.318758
1.842876 -4.114574 0.318770
1.842949 -4.141882 0.318783
1.886400 -4.169232 0.326299
1.929849 -4.196577 0.333814
1.973294 -4.223915 0.341329
2.016738 -4.251246 0.348844
2.060178 -4.278572 0.356358
2.103615 -4.305891 0.363871
2.147047 -4.333203 0.371384
2.190476 -4.360509 0.378896
2.233900 -4.387808 0.386407
2.277320 -4.415101 0.393918
2.277361 -4.442361 0.393925
2.320773 -4.469642 0.401434
2.364179 -4.496918 0.408942
2.407579 -4.524187 0.416449
2.407608 -4.551431 0.416454
2.450999 -4.578689 0.423960
2.451023 -4.605927 0.423964
2.494403 -4.633174 0.431468
2.537778 -4.660417 0.438970
2.537792 -4.687644 0.438973
2.754560 -4.714887 0.476468
2.884598 -4.742092 0.498961
2.927929 -4.769297 0.506456
2.927913 -4.796507 0.506454
2.927895 -4.823716 0.506451
2.971210 -4.850910 0.513943
2.971188 -4.878115 0.513939
2.927835 -4.905334 0.506440
2.927813 -4.932537 0.506436
2.277656 -5.368207 0.393976
2.234305 -5.395469 0.386477
2.190949 -5.422739 0.378978
2.190910 -5.449989 0.378971
2.147548 -5.477270 0.371471
2.104182 -5.504559 0.363969
-1.932229 -3.595137 -0.794388
-1.932288 -3.622529 -0.794412
-1.932348 -3.649916 -0.794437
-1.932408 -3.677299 -0.794461
-1.932468 -3.704677 -0.794486
-1.891773 -3.732007 -0.777756
-1.891836 -3.759376 -0.777781
-1.891899 -3.786740 -0.777807
-1.891962 -3.814099 -0.777833
-1.892025 -3.841455 -0.777859
-1.892089 -3.868804 -0.777885
-1.892153 -3.896151 -0.777912
-1.892216 -3.923492 -0.777938
-1.892280 -3.950829 -0.777964
-1.892343 -3.978161 -0.777990
-1.892406 -4.005488 -0.778016
-1.892468 -4.032812 -0.778041
-1.892530 -4.060131 -0.778067
-1.892592 -4.087446 -0.778093
-1.892653 -4.114757 -0.778118
-1.892715 -4.142063 -0.778143
-1.933499 -4.169406 -0.794910
-1.933557 -4.196703 -0.794934
-1.974336 -4.224036 -0.811699
-1.974390 -4.251325 -0.811722
-1.974444 -4.278610 -0.811744
-1.974496 -4.305891 -0.811765
-1.974547 -4.333168 -0.811786
-1.974598 -4.360442 -0.811807
-2.015358 -4.387745 -0.828565
-2.015404 -4.415011 -0.828584
-2.015450 -4.442274 -0.828602
-2.015493 -4.469533 -0.828620
-2.056240 -4.496818 -0.845372
-2.056280 -4.524070 -0.845389
-2.056317 -4.551319 -0.845404
-2.097053 -4.578590 -0.862151
-2.097086 -4.605833 -0.862165
-2.097117 -4.633072 -0.862178
-2.137841 -4.660330 -0.878920
-2.137867 -4.687564 -0.878931
-2.137891 -4.714797 -0.878941
-2.137914 -4.742027 -0.878950
-2.137935 -4.769255 -0.878959
-2.137954 -4.796483 -0.878967
-2.137971 -4.823708 -0.878974
-2.137987 -4.850932 -0.878980
-2.138000 -4.878155 -0.878986
-2.178689 -4.905385 -0.895714
-2.178697 -4.932604 -0.895717
-2.178702 -4.959824 -0.895720
-2.178706 -4.987043 -0.895721
-2.178707 -5.014262 -0.895721
-2.178707 -5.041481 -0.895721
-2.178704 -5.068700 -0.895720
-2.138031 -5.095924 -0.878998
-2.138025 -5.123147 -0.878996
-2.138016 -5.150369 -0.878992
-2.138005 -5.177593 -0.878988
-2.137991 -5.204818 -0.878982
-2.137975 -5.232045 -0.878975
-2.137956 -5.259273 -0.878968
-2.097273 -5.286519 -0.862242
-2.097250 -5.313753 -0.862233
-2.056563 -5.341008 -0.845505
-0.898191 -2.824528 -0.110001
-0.941879 -2.851910 -0.115351
-0.941831 -2.879322 -0.115345
-0.941784 -2.906733 -0.115339
-0.941736 -2.934143 -0.115334
-0.941688 -2.961552 -0.115328
-0.941640 -2.988959 -0.115322
-0.897853 -3.016398 -0.109959
-0.897803 -3.043804 -0.109953
-0.897754 -3.071208 -0.109947
-0.897705 -3.098611 -0.109941
-0.940690 -3.564270 -0.115205
-0.940652 -3.591654 -0.115201
0.893897 -3.648442 0.109475
1.287010 -3.676362 0.157619
1.592952 -3.704136 0.195087
1.899045 -3.731869 0.232574
2.117787 -3.759461 0.259363
2.205335 -3.786907 0.270085
2.249138 -3.814305 0.275450
2.292939 -3.841696 0.280814
1.812749 -4.141833 0.222006
1.812823 -4.169138 0.222015
1.856589 -4.196486 0.227375
1.856660 -4.223782 0.227383
1.900422 -4.251119 0.232743
1.987874 -4.278492 0.243453
2.031629 -4.305815 0.248812
2.031688 -4.333094 0.248819
2.031746 -4.360369 0.248826
2.119182 -4.387712 0.259534
2.162923 -4.415011 0.264891
2.162972 -4.442274 0.264897
2.206705 -4.469563 0.270253
2.206748 -4.496818 0.270258
2.250473 -4.524096 0.275613
2.250511 -4.551344 0.275618
2.294228 -4.578612 0.280972
2.294260 -4.605854 0.280976
2.337967 -4.633113 0.286329
2.337995 -4.660348 0.286332
2.381692 -4.687597 0.291684
2.469052 -4.714851 0.302383
2.469068 -4.742077 0.302384
2.774723 -4.796537 0.339818
2.731059 -4.823753 0.334470
2.731053 -4.850965 0.334470
2.774699 -4.878170 0.339815
2.774687 -4.905379 0.339813
2.774674 -4.932586 0.339812
2.207095 -5.341008 0.270301
2.163426 -5.368269 0.264953
2.119754 -5.395537 0.259604
-0.902785 -3.098611 -0.054236
-0.946725 -3.125982 -0.056876
-0.902685 -3.153415 -0.054230
-0.902637 -3.180815 -0.054227
-0.946583 -3.208183 -0.056867
-0.946534 -3.235580 -0.056864
0.811057 -3.620944 0.048725
1.162427 -3.648808 0.069834
1.162520 -3.676183 0.069840
1.470125 -3.703969 0.088320
1.733918 -3.731668 0.104168
1.909864 -3.759237 0.114738
2.085849 -3.786784 0.125310
2.085916 -3.814143 0.125314
2.085981 -3.841498 0.125318
1.735280 -4.196341 0.104249
1.823227 -4.223735 0.109533
1.823298 -4.251029 0.109537
1.823370 -4.278318 0.109542
1.911308 -4.305692 0.114825
1.911373 -4.332973 0.114828
1.955371 -4.360291 0.117472
1.999365 -4.387603 0.120115
2.043356 -4.414909 0.122757
2.087343 -4.442209 0.125400
2.087395 -4.469470 0.125403
2.087444 -4.496728 0.125406
2.131420 -4.524013 0.128048
2.175391 -4.551292 0.130690
2.175432 -4.578540 0.130692
2.175471 -4.605784 0.130695
2.219430 -4.633050 0.133335
2.219464 -4.660289 0.133337
2.263414 -4.687546 0.135978
2.351274 -4.714812 0.141256
2.395210 -4.742055 0.143896
2.439141 -4.769292 0.146535
2.526974 -4.796529 0.151812
2.570889 -4.823753 0.154450
2.614796 -4.850971 0.157088
2.614796 -4.878185 0.157088
2.570895 -4.905399 0.154450
2.219690 -5.204838 0.133351
2.175786 -5.232079 0.130713
2.175768 -5.259313 0.130712
2.131859 -5.286562 0.128074
2.087947 -5.313818 0.125436
2.087920 -5.341063 0.125435
2.044002 -5.368330 0.122796
2.000077 -5.395603 0.120157
0.900243 -3.621066 0.020734
1.076244 -3.648686 0.024788
1.164307 -3.676183 0.026816
1.252380 -3.703675 0.028845
1.604513 -3.731507 0.036955
1.780693 -3.759087 0.041013
1.912875 -3.786601 0.044057
2.001029 -3.814054 0.046087
2.045142 -3.841455 0.047103
2.045211 -3.868804 0.047105
2.089321 -3.896194 0.048121
2.089387 -3.923536 0.048122
2.045417 -3.950829 0.047110
1.957423 -3.978069 0.045083
1.913470 -4.005350 0.044071
1.869523 -4.032626 0.043058
1.781567 -4.059846 0.041033
1.737635 -4.087112 0.040021
1.737714 -4.114425 0.040023
1.737793 -4.141734 0.040024
1.737870 -4.169039 0.040026
1.693946 -4.196291 0.039015
1.694023 -4.223589 0.039016
1.826173 -4.278318 0.042060
1.826242 -4.305604 0.042062
1.826311 -4.332886 0.042063
1.826379 -4.360165 0.042065
1.870441 -4.387483 0.043080
1.958499 -4.414834 0.045108
1.958556 -4.442101 0.045109
1.958614 -4.469365 0.045110
2.002663 -4.496661 0.046125
2.002715 -4.523919 0.046126
2.046757 -4.551205 0.047140
2.046804 -4.578455 0.047141
2.046849 -4.605703 0.047143
2.090878 -4.632976 0.048157
2.090918 -4.660219 0.048158
2.090956 -4.687459 0.048158
2.134974 -4.714720 0.049172
2.178987 -4.741975 0.050186
2.222994 -4.769224 0.051200
2.310974 -4.796483 0.053226
2.354968 -4.823719 0.054239
2.398955 -4.850950 0.055252
2.091250 -5.095933 0.048165
2.091249 -5.123163 0.048165
2.091245 -5.150395 0.048165
2.091237 -5.177629 0.048165
2.047267 -5.204870 0.047152
2.047255 -5.232108 0.047152
2.003278 -5.259359 0.046139
2.003259 -5.286603 0.046139
2.003237 -5.313849 0.046138
1.959251 -5.341115 0.045125
1.915259 -5.368388 0.044112
1.871263 -5.395669 0.043099
1.871227 -5.422933 0.043098
0.856201 -3.621005 -0.022600
0.900262 -3.648442 -0.023763
1.076248 -3.676061 -0.028408
1.164303 -3.703554 -0.030733
1.472350 -3.731338 -0.038864
1.604464 -3.758873 -0.042351
1.736601 -3.786398 -0.045839
1.780704 -3.813809 -0.047003
1.868835 -3.841265 -0.049329
1.956970 -3.868713 -0.051655
1.957043 -3.896059 -0.051657
2.001145 -3.923447 -0.052822
1.957187 -3.950737 -0.051661
1.957261 -3.978069 -0.051663
1.913311 -4.005350 -0.050503
1.913384 -4.032675 -0.050505
1.869442 -4.059946 -0.049345
1.781497 -4.087163 -0.047024
1.737570 -4.114425 -0.045864
1.693647 -4.141683 -0.044705
1.649729 -4.168937 -0.043546
1.649809 -4.196240 -0.043548
1.649888 -4.223539 -0.043550
1.870349 -4.414755 -0.049369
1.826421 -4.441984 -0.048210
1.826483 -4.469251 -0.048211
1.826543 -4.496515 -0.048213
1.958845 -4.687383 -0.051705
1.914908 -4.714599 -0.050545
1.914948 -4.741842 -0.050546
2.091041 -4.959786 -0.055194
2.091053 -4.987015 -0.055195
2.047100 -5.014238 -0.054035
2.003145 -5.041464 -0.052874
2.003152 -5.068697 -0.052874
2.003155 -5.095931 -0.052875
2.003155 -5.123166 -0.052875
1.959192 -5.150403 -0.051714
1.959187 -5.177643 -0.051714
1.915218 -5.204890 -0.050553
1.915206 -5.232134 -0.050553
1.915192 -5.259381 -0.050553
1.915174 -5.286629 -0.050552
1.871191 -5.313894 -0.049391
1.827203 -5.341167 -0.048230
1.783209 -5.368447 -0.047069
1.783177 -5.395712 -0.047068
1.739173 -5.423006 -0.045907
0.897895 -3.621066 -0.068197
0.854133 -3.648380 -0.064873
0.985802 -3.675938 -0.074874
1.161363 -3.703554 -0.088208
1.293085 -3.731103 -0.098213
1.424830 -3.758646 -0.108219
1.556599 -3.786180 -0.118227
1.644485 -3.813649 -0.124902
1.688472 -3.841058 -0.128243
1.776368 -3.868514 -0.134919
1.820356 -3.895911 -0.138260
1.864345 -3.923303 -0.141601
1.864421 -3.950640 -0.141607
1.908406 -3.978022 -0.144948
1.908480 -4.005350 -0.144954
1.908553 -4.032675 -0.144959
1.908627 -4.059994 -0.144965
1.864797 -4.087262 -0.141636
1.777077 -4.114476 -0.134973
1.733262 -4.141734 -0.131645
1.689451 -4.168989 -0.128318
1.645643 -4.196240 -0.124990
1.601840 -4.223488 -0.121664
1.690181 -4.441858 -0.128373
1.866120 -4.660079 -0.141736
1.866165 -4.687326 -0.141740
1.866208 -4.714572 -0.141743
1.866248 -4.741817 -0.141746
1.866287 -4.769059 -0.141749
1.866323 -4.796300 -0.141752
1.910217 -4.823561 -0.145086
1.910247 -4.850799 -0.145088
1.910274 -4.878036 -0.145090
1.954157 -4.905288 -0.148423
1.954178 -4.932522 -0.148425
1.954197 -4.959756 -0.148426
1.954213 -4.986990 -0.148427
1.910371 -5.014217 -0.145097
1.910382 -5.041453 -0.145098
1.910390 -5.068690 -0.145099
1.910395 -5.095928 -0.145099
1.910396 -5.123166 -0.145099
1.910395 -5.150406 -0.145099
1.866539 -5.177651 -0.141768
1.866531 -5.204896 -0.141767
1.866520 -5.232142 -0.141767
1.822654 -5.259401 -0.138435
1.778782 -5.286666 -0.135103
1.778760 -5.313924 -0.135101
1.734879 -5.341202 -0.131768
1.734851 -5.368467 -0.131766
1.690959 -5.395758 -0.128432
1.647060 -5.423057 -0.125098
0.893430 -3.621066 -0.112467
0.849886 -3.648380 -0.106986
0.849980 -3.675753 -0.106998
0.980994 -3.703308 -0.123490
1.242994 -3.731043 -0.156471
1.330410 -3.758528 -0.167475
1.417835 -3.786007 -0.178481
1.505268 -3.813481 -0.189487
1.592710 -3.840948 -0.200494
1.636475 -3.868353 -0.206004
1.680241 -3.895754 -0.211513
1.724006 -3.923149 -0.217022
1.767772 -3.950539 -0.222532
1.811537 -3.977923 -0.228041
1.811614 -4.005252 -0.228050
1.811691 -4.032576 -0.228060
1.811767 -4.059897 -0.228070
1.811843 -4.087213 -0.228079
1.811918 -4.114525 -0.228089
1.768317 -4.141785 -0.222600
1.724720 -4.169039 -0.217112
1.681128 -4.196291 -0.211625
1.637539 -4.223539 -0.206137
1.593953 -4.250784 -0.200651
1.725842 -4.632732 -0.217253
1.682244 -4.659953 -0.211765
1.725941 -4.687237 -0.217266
1.769633 -4.714517 -0.222766
1.813323 -4.741790 -0.228266
1.813361 -4.769034 -0.228270
1.857042 -4.796300 -0.233769
1.857076 -4.823540 -0.233773
1.857106 -4.850780 -0.233777
1.857134 -4.878018 -0.233781
1.857161 -4.905257 -0.233784
1.857183 -4.932495 -0.233787
1.857203 -4.959733 -0.233789
1.857221 -4.986970 -0.233792
1.857235 -5.014208 -0.233793
1.857246 -5.041447 -0.233795
1.813618 -5.068681 -0.228303
1.813624 -5.095922 -0.228303
1.813627 -5.123166 -0.228304
1.813626 -5.150410 -0.228304
1.813622 -5.177655 -0.228303
1.769979 -5.204908 -0.222809
1.769968 -5.232159 -0.222808
1.726317 -5.259422 -0.217313
1.682659 -5.286692 -0.211817
1.682637 -5.313954 -0.211815
1.682612 -5.341219 -0.211811
0.843563 -3.648380 -0.148837
0.843657 -3.675753 -0.148854
0.973696 -3.703308 -0.171798
1.017110 -3.730737 -0.179458
1.233839 -3.758408 -0.217697
1.320603 -3.785889 -0.233006
1.364033 -3.813306 -0.240668
1.450810 -3.840777 -0.255979
1.494244 -3.868185 -0.263643
1.537679 -3.895587 -0.271306
1.624468 -3.923041 -0.286619
1.624551 -3.950378 -0.286634
1.667986 -3.977767 -0.294297
1.668068 -4.005096 -0.294312
1.711501 -4.032474 -0.301975
1.711580 -4.059795 -0.301989
1.711658 -4.087112 -0.302003
1.711736 -4.114425 -0.302017
1.755162 -4.141785 -0.309679
1.755237 -4.169089 -0.309692
1.711965 -4.196341 -0.302057
1.712040 -4.223639 -0.302070
1.668773 -4.250885 -0.294436
1.625509 -4.278127 -0.286803
1.582248 -4.305367 -0.279170
1.582322 -4.332654 -0.279183
1.539064 -4.359889 -0.271550
1.539136 -4.387171 -0.271563
1.539206 -4.414449 -0.271576
1.539276 -4.441725 -0.271588
1.626186 -4.550885 -0.286922
1.626244 -4.578146 -0.286932
1.626300 -4.605406 -0.286942
1.626354 -4.632664 -0.286952
1.669730 -4.659953 -0.294605
1.669778 -4.687206 -0.294614
1.713146 -4.714488 -0.302265
1.713190 -4.741736 -0.302273
1.756551 -4.769009 -0.309924
1.756589 -4.796254 -0.309930
1.756623 -4.823497 -0.309936
1.756656 -4.850740 -0.309942
1.756686 -4.877983 -0.309947
1.756712 -4.905224 -0.309952
1.756737 -4.932466 -0.309956
1.756758 -4.959707 -0.309960
1.756777 -4.986949 -0.309964
1.756792 -5.014191 -0.309966
1.713490 -5.041426 -0.302326
1.713500 -5.068670 -0.302328
1.713506 -5.095917 -0.302329
1.713509 -5.123164 -0.302329
1.713509 -5.150412 -0.302329
1.713506 -5.177662 -0.302329
1.670184 -5.204919 -0.294685
1.670173 -5.232175 -0.294683
1.626843 -5.259443 -0.287038
1.626824 -5.286705 -0.287035
1.583483 -5.313985 -0.279388
1.540135 -5.341274 -0.271740
1.540105 -5.368549 -0.271734
1.540071 -5.395827 -0.271728
1.496706 -5.423135 -0.264077
0.449307 -3.647834 -0.102390
0.706636 -3.675568 -0.161031
0.749606 -3.702998 -0.170824
0.921227 -3.730613 -0.209934
1.135778 -3.758286 -0.258826
1.135871 -3.785646 -0.258847
1.221761 -3.813126 -0.278421
1.307661 -3.840600 -0.297996
1.393568 -3.868068 -0.317573
1.436568 -3.895473 -0.327372
1.479569 -3.922872 -0.337171
1.522570 -3.950267 -0.346970
1.522655 -3.977601 -0.346990
1.565654 -4.004987 -0.356788
1.565737 -4.032313 -0.356807
1.565819 -4.059635 -0.356826
1.608815 -4.087007 -0.366624
1.608895 -4.114321 -0.366642
1.651888 -4.141683 -0.376440
1.651965 -4.168989 -0.376457
1.652042 -4.196291 -0.376475
1.695029 -4.223639 -0.386271
1.652191 -4.250885 -0.376509
1.652265 -4.278176 -0.376526
1.652337 -4.305464 -0.376542
1.609503 -4.332702 -0.366781
1.566672 -4.359937 -0.357020
1.523843 -4.387171 -0.347260
1.567190 -4.578108 -0.357139
1.610141 -4.605406 -0.366926
1.567302 -4.632629 -0.357164
1.610246 -4.659920 -0.366950
1.610295 -4.687174 -0.366961
1.610342 -4.714427 -0.366972
1.653276 -4.741708 -0.376756
1.653318 -4.768957 -0.376766
1.653357 -4.796205 -0.376774
1.653392 -4.823452 -0.376783
1.653426 -4.850698 -0.376790
1.653456 -4.877944 -0.376797
1.653484 -4.905189 -0.376803
1.653510 -4.932435 -0.376809
1.653531 -4.959681 -0.376814
1.696436 -4.986938 -0.386592
1.696451 -5.014181 -0.386595
1.696464 -5.041426 -0.386598
1.653589 -5.068666 -0.376827
1.653595 -5.095913 -0.376829
1.653599 -5.123163 -0.376830
1.610713 -5.150415 -0.367057
1.610710 -5.177669 -0.367056
1.610703 -5.204925 -0.367054
1.567804 -5.232192 -0.357278
1.567790 -5.259454 -0.357275
1.524881 -5.286732 -0.347497
1.481965 -5.314018 -0.337717
1.481938 -5.341293 -0.337711
1.439011 -5.368593 -0.327928
1.438975 -5.395877 -0.327920
0.486036 -3.647893 -0.136335
0.570800 -3.675385 -0.160111
0.697910 -3.702937 -0.195767
0.825035 -3.730488 -0.231425
0.952176 -3.758038 -0.267089
1.079337 -3.785584 -0.302758
1.121788 -3.813003 -0.314666
1.164242 -3.840418 -0.326574
1.249064 -3.867889 -0.350367
1.333893 -3.895355 -0.374162
1.376354 -3.922757 -0.386072
1.418815 -3.950153 -0.397983
1.461277 -3.977545 -0.409894
1.461361 -4.004875 -0.409917
1.461445 -4.032201 -0.409941
1.503904 -4.059579 -0.421851
1.503986 -4.086898 -0.421874
1.546443 -4.114267 -0.433783
1.546521 -4.141578 -0.433805
1.546601 -4.168884 -0.433827
1.589052 -4.196240 -0.445735
1.546755 -4.223488 -0.433871
1.546831 -4.250784 -0.433892
1.546906 -4.278077 -0.433913
1.589349 -4.305416 -0.445818
1.504897 -4.414449 -0.422129
1.462603 -4.441680 -0.410266
1.462670 -4.468955 -0.410284
1.420375 -4.496184 -0.398421
1.462859 -4.550765 -0.410338
1.505277 -4.578070 -0.422236
1.505333 -4.605332 -0.422252
1.505387 -4.632593 -0.422267
1.547796 -4.659886 -0.434163
1.547846 -4.687142 -0.434177
1.547893 -4.714397 -0.434190
1.547936 -4.741651 -0.434202
1.547978 -4.768902 -0.434214
1.548018 -4.796154 -0.434225
1.590408 -4.823429 -0.446115
1.590442 -4.850677 -0.446125
1.590472 -4.877924 -0.446133
1.590500 -4.905172 -0.446141
1.590526 -4.932419 -0.446148
1.632899 -4.959681 -0.458034
1.590567 -4.986914 -0.446160
1.590583 -5.014162 -0.446164
1.590595 -5.041410 -0.446168
1.590605 -5.068660 -0.446171
1.548260 -5.095907 -0.434293
1.548264 -5.123160 -0.434294
1.548264 -5.150416 -0.434294
1.548260 -5.177673 -0.434293
1.505898 -5.204937 -0.422410
1.505888 -5.232200 -0.422407
1.463516 -5.259476 -0.410522
1.463497 -5.286746 -0.410517
1.421114 -5.314035 -0.398628
1.378724 -5.341333 -0.386737
1.378691 -5.368616 -0.386728
0.478708 -3.647893 -0.160178
0.603895 -3.675445 -0.202065
0.645685 -3.702875 -0.216048
0.770888 -3.730426 -0.257942
0.854396 -3.757914 -0.285884
0.937911 -3.785398 -0.313828
1.063154 -3.812941 -0.355735
1.104965 -3.840356 -0.369725
1.146778 -3.867768 -0.383716
1.188592 -3.895175 -0.397707
1.230408 -3.922577 -0.411699
1.272224 -3.949976 -0.425691
1.314041 -3.977370 -0.439683
1.355858 -4.004760 -0.453675
1.397675 -4.032144 -0.467667
1.397759 -4.059467 -0.467695
1.397841 -4.086786 -0.467723
1.397923 -4.114102 -0.467750
1.398005 -4.141414 -0.467777
1.398086 -4.168723 -0.467804
1.398165 -4.196028 -0.467831
1.481779 -4.250732 -0.495808
1.481853 -4.278027 -0.495833
1.481927 -4.305317 -0.495858
1.523727 -4.332654 -0.509845
1.523798 -4.359937 -0.509868
1.482140 -4.387171 -0.495929
1.523934 -4.414495 -0.509914
1.482275 -4.441725 -0.495975
1.440617 -4.468955 -0.482036
1.440681 -4.496227 -0.482057
1.440743 -4.523497 -0.482078
1.399084 -4.550724 -0.468138
1.399142 -4.577991 -0.468158
1.399199 -4.605257 -0.468177
1.440972 -4.632557 -0.482154
1.441024 -4.659818 -0.482172
1.441073 -4.687077 -0.482188
1.441120 -4.714334 -0.482204
1.441164 -4.741591 -0.482219
1.482923 -4.768875 -0.496191
1.482962 -4.796128 -0.496204
1.482999 -4.823381 -0.496217
1.483032 -4.850632 -0.496228
1.483063 -4.877884 -0.496238
1.524806 -4.905154 -0.510206
1.524831 -4.932403 -0.510214
1.524853 -4.959652 -0.510221
1.524873 -4.986902 -0.510228
1.483174 -5.014142 -0.496275
1.483187 -5.041395 -0.496280
1.483197 -5.068649 -0.496283
1.441487 -5.095901 -0.482327
1.441490 -5.123159 -0.482328
1.441489 -5.150419 -0.482327
1.399766 -5.177684 -0.468367
1.399758 -5.204950 -0.468364
1.358024 -5.232227 -0.454400
1.358008 -5.259500 -0.454394
1.316262 -5.286791 -0.440426
1.316238 -5.314070 -0.440418
1.274479 -5.341375 -0.426445
1.274446 -5.368663 -0.426434
0.511170 -3.647954 -0.199624
0.470297 -3.675264 -0.183662
0.593263 -3.702814 -0.231683
0.634313 -3.730241 -0.247714
0.757294 -3.757789 -0.295741
0.798351 -3.785211 -0.311775
0.921354 -3.812755 -0.359810
1.003394 -3.840232 -0.391849
1.044461 -3.867644 -0.407886
1.085530 -3.895052 -0.423925
1.126599 -3.922456 -0.439963
1.167670 -3.949856 -0.456002
1.208741 -3.977252 -0.472042
1.249813 -4.004642 -0.488081
1.249898 -4.031970 -0.488114
1.290969 -4.059352 -0.504154
1.291052 -4.086672 -0.504186
1.291134 -4.113988 -0.504218
1.332203 -4.141358 -0.520256
1.332283 -4.168667 -0.520288
1.332362 -4.195973 -0.520319
1.373427 -4.223330 -0.536355
1.373502 -4.250628 -0.536385
1.373578 -4.277924 -0.536414
1.414637 -4.305267 -0.552449
1.373725 -4.332505 -0.536472
1.373796 -4.359791 -0.536499
1.373866 -4.387075 -0.536527
1.373934 -4.414356 -0.536554
1.374001 -4.441634 -0.536579
1.374066 -4.468910 -0.536605
1.374129 -4.496184 -0.536630
1.374191 -4.523455 -0.536654
1.415231 -4.550765 -0.552681
1.374309 -4.577991 -0.536700
1.374364 -4.605257 -0.536722
1.374418 -4.632521 -0.536742
1.374469 -4.659783 -0.536762
1.374518 -4.687044 -0.536782
1.374564 -4.714303 -0.536800
1.374608 -4.741562 -0.536817
1.374650 -4.768819 -0.536833
1.374689 -4.796076 -0.536848
1.374725 -4.823332 -0.536862
1.374758 -4.850588 -0.536875
1.374789 -4.877843 -0.536887
1.374817 -4.905099 -0.536898
1.374842 -4.932354 -0.536908
1.374863 -4.959610 -0.536916
1.374882 -4.986866 -0.536924
1.374898 -5.014122 -0.536930
1.374910 -5.041380 -0.536934
1.374919 -5.068638 -0.536938
1.374925 -5.095898 -0.536940
1.374928 -5.123158 -0.536941
1.333947 -5.150423 -0.520938
1.333942 -5.177689 -0.520936
1.292950 -5.204965 -0.504928
1.292938 -5.232238 -0.504923
1.251935 -5.259526 -0.488910
1.251913 -5.286806 -0.488901
1.251888 -5.314089 -0.488892
1.251858 -5.341375 -0.488880
-2.217176 -2.359049 -0.785901
-2.217179 -2.386561 -0.785902
-2.258800 -2.414077 -0.800655
-2.383726 -2.606689 -0.844936
-2.383738 -2.634201 -0.844941
-2.383751 -2.661712 -0.844945
-2.342141 -2.689211 -0.830196
-2.342156 -2.716719 -0.830202
-2.342173 -2.744224 -0.830208
-2.342190 -2.771729 -0.830214
-2.383911 -2.909235 -0.845002
-1.927629 -3.622486 -0.683268
-1.969232 -3.649916 -0.698015
-1.969293 -3.677299 -0.698036
-1.969354 -3.704677 -0.698058
-1.969416 -3.732050 -0.698080
-1.969478 -3.759419 -0.698102
-1.969541 -3.786784 -0.698124
-1.928075 -3.814099 -0.683426
-1.928140 -3.841455 -0.683449
-1.928204 -3.868804 -0.683472
-1.928269 -3.896151 -0.683495
-1.928334 -3.923492 -0.683518
-1.928399 -3.950829 -0.683541
-1.928463 -3.978161 -0.683564
-1.928527 -4.005488 -0.683586
-1.928591 -4.032812 -0.683609
-1.928654 -4.060131 -0.683631
-1.970225 -4.087489 -0.698367
-1.970286 -4.114799 -0.698388
-1.970346 -4.142105 -0.698410
-1.970405 -4.169406 -0.698430
-1.970464 -4.196703 -0.698451
-2.012021 -4.224036 -0.713182
-2.012076 -4.251325 -0.713201
-2.012131 -4.278610 -0.713221
-2.012184 -4.305891 -0.713240
-2.012237 -4.333168 -0.713258
-2.012288 -4.360442 -0.713276
-2.053827 -4.387745 -0.728000
-2.053874 -4.415011 -0.728017
-2.053920 -4.442274 -0.728033
-2.053964 -4.469533 -0.728049
-2.095489 -4.496818 -0.742768
-2.095529 -4.524070 -0.742782
-2.095567 -4.551319 -0.742796
-2.095604 -4.578566 -0.742809
-2.137114 -4.605833 -0.757522
-2.137146 -4.633072 -0.757533
-2.137177 -4.660310 -0.757544
-2.178674 -4.687564 -0.772254
-2.178698 -4.714797 -0.772262
-2.178721 -4.742027 -0.772270
-2.178743 -4.769255 -0.772278
-2.178763 -4.796483 -0.772285
-2.178780 -4.823708 -0.772291
-2.178796 -4.850932 -0.772297
-2.178810 -4.878155 -0.772302
-2.178821 -4.905377 -0.772306
-2.178831 -4.932599 -0.772309
-2.178837 -4.959820 -0.772312
-2.220292 -4.987043 -0.787006
-2.178846 -5.014261 -0.772314
-2.178846 -5.041482 -0.772315
-2.178844 -5.068703 -0.772314
-2.178841 -5.095924 -0.772313
-2.178835 -5.123147 -0.772311
-2.178825 -5.150369 -0.772307
-2.178814 -5.177593 -0.772303
-2.178800 -5.204818 -0.772298
-2.178783 -5.232045 -0.772292
-2.178764 -5.259273 -0.772286
-2.178742 -5.286503 -0.772278
-2.137282 -5.313753 -0.757582
-2.054286 -5.422763 -0.728163
-2.012810 -5.450041 -0.713461
0.500685 -3.647954 -0.224630
0.500769 -3.675324 -0.224668
0.540974 -3.702753 -0.242706
0.621302 -3.730241 -0.278745
0.741761 -3.757789 -0.332788
0.781976 -3.785211 -0.350830
0.822192 -3.812630 -0.368873
0.902543 -3.840108 -0.404922
0.982900 -3.867582 -0.440974
1.023124 -3.894990 -0.459021
1.063350 -3.922395 -0.477068
1.103577 -3.949795 -0.495115
1.143804 -3.977191 -0.513163
1.184032 -4.004583 -0.531211
1.224261 -4.031970 -0.549260
1.224343 -4.059294 -0.549297
1.224425 -4.086614 -0.549333
1.224506 -4.113931 -0.549370
1.224587 -4.141244 -0.549406
1.224667 -4.168555 -0.549442
1.224745 -4.195862 -0.549477
1.264965 -4.223221 -0.567522
1.265042 -4.250521 -0.567556
1.265117 -4.277818 -0.567590
1.265190 -4.305112 -0.567623
1.305404 -4.332455 -0.585664
1.305475 -4.359742 -0.585696
1.305544 -4.387026 -0.585727
1.305612 -4.414309 -0.585758
1.305678 -4.441587 -0.585787
1.305742 -4.468865 -0.585816
1.305805 -4.496140 -0.585844
1.305865 -4.523412 -0.585871
1.346063 -4.550724 -0.603906
1.346119 -4.577991 -0.603931
1.346174 -4.605257 -0.603956
1.346226 -4.632521 -0.603979
1.346277 -4.659783 -0.604002
1.346325 -4.687044 -0.604023
1.346370 -4.714303 -0.604044
1.346413 -4.741562 -0.604063
1.306318 -4.768791 -0.586074
1.306356 -4.796050 -0.586091
1.306391 -4.823308 -0.586107
1.306424 -4.850565 -0.586122
1.306454 -4.877823 -0.586135
1.306482 -4.905080 -0.586148
1.306506 -4.932338 -0.586159
1.306526 -4.959596 -0.586168
1.306545 -4.986854 -0.586176
1.306560 -5.014112 -0.586183
1.306571 -5.041372 -0.586188
1.266441 -5.068628 -0.568184
1.266446 -5.095892 -0.568186
1.266447 -5.123158 -0.568186
1.226303 -5.150428 -0.550176
1.226297 -5.177700 -0.550173
1.226287 -5.204973 -0.550169
1.186126 -5.232260 -0.532151
1.186108 -5.259540 -0.532143
1.145935 -5.286840 -0.514119
1.145908 -5.314128 -0.514107
1.145877 -5.341420 -0.514093
0.449798 -3.647893 -0.229130
0.449880 -3.675264 -0.229172
0.449962 -3.702632 -0.229214
0.567590 -3.730179 -0.289135
0.724417 -3.757789 -0.369023
0.724502 -3.785149 -0.369067
0.763777 -3.812567 -0.389073
0.803053 -3.839983 -0.409081
0.881524 -3.867458 -0.449054
0.960002 -3.894929 -0.489032
0.999285 -3.922333 -0.509043
1.038570 -3.949734 -0.529055
1.077856 -3.977130 -0.549067
1.077938 -4.004462 -0.549109
1.117223 -4.031851 -0.569121
1.117305 -4.059175 -0.569163
1.156589 -4.086556 -0.589175
1.156669 -4.113873 -0.589215
1.156749 -4.141188 -0.589256
1.156827 -4.168499 -0.589296
1.196107 -4.195862 -0.609306
1.196183 -4.223166 -0.609344
1.196258 -4.250467 -0.609382
1.196332 -4.277765 -0.609420
1.196404 -4.305060 -0.609457
1.196476 -4.332352 -0.609493
1.235747 -4.359692 -0.629498
1.235815 -4.386977 -0.629533
1.235882 -4.414260 -0.629567
1.235947 -4.441541 -0.629600
1.275211 -4.468865 -0.649601
1.275272 -4.496140 -0.649632
1.314531 -4.523455 -0.669631
1.314589 -4.550724 -0.669661
1.314644 -4.577991 -0.669689
1.314697 -4.605257 -0.669716
1.314748 -4.632521 -0.669742
1.314797 -4.659783 -0.669767
1.314844 -4.687044 -0.669791
1.275690 -4.714271 -0.649846
1.275732 -4.741532 -0.649867
1.275772 -4.768791 -0.649887
1.236612 -4.796023 -0.629939
1.236646 -4.823284 -0.629956
1.236678 -4.850543 -0.629972
1.236708 -4.877803 -0.629987
1.236734 -4.905062 -0.630001
1.236757 -4.932322 -0.630013
1.236778 -4.959582 -0.630023
1.236795 -4.986842 -0.630032
1.197609 -5.014094 -0.610070
1.197619 -5.041358 -0.610075
1.197627 -5.068624 -0.610079
1.197630 -5.095891 -0.610081
1.158426 -5.123160 -0.590110
1.158423 -5.150432 -0.590109
1.158416 -5.177706 -0.590105
1.158405 -5.204982 -0.590100
1.119181 -5.232272 -0.570119
1.119162 -5.259555 -0.570109
1.079925 -5.286859 -0.550122
1.079898 -5.314150 -0.550107
0.399864 -3.675204 -0.229245
0.399943 -3.702572 -0.229291
0.514467 -3.730118 -0.294948
0.628999 -3.757665 -0.360610
0.667233 -3.785087 -0.382530
0.705470 -3.812505 -0.404452
0.781865 -3.839983 -0.448250
0.820106 -3.867396 -0.470174
0.858349 -3.894804 -0.492098
0.896593 -3.922210 -0.514024
0.973002 -3.949673 -0.557830
0.973084 -3.977008 -0.557877
1.011331 -4.004402 -0.579804
1.049578 -4.031791 -0.601732
1.049658 -4.059116 -0.601778
1.049737 -4.086438 -0.601823
1.087983 -4.113815 -0.623749
1.088060 -4.141130 -0.623794
1.088137 -4.168442 -0.623838
1.088213 -4.195750 -0.623881
1.088287 -4.223055 -0.623924
1.126600 -4.277711 -0.645889
1.164838 -4.305060 -0.667811
1.164908 -4.332352 -0.667851
1.164976 -4.359642 -0.667890
1.165043 -4.386928 -0.667929
1.165108 -4.414213 -0.667966
1.203338 -4.441541 -0.689883
1.203399 -4.468820 -0.689918
1.241625 -4.496140 -0.711834
1.241683 -4.523412 -0.711867
1.241739 -4.550683 -0.711899
1.241793 -4.577951 -0.711930
1.241845 -4.605218 -0.711960
1.241895 -4.632484 -0.711989
1.241943 -4.659748 -0.712016
1.241989 -4.687010 -0.712042
1.242033 -4.714271 -0.712067
1.242074 -4.741532 -0.712091
1.203948 -4.768763 -0.690233
1.203985 -4.796023 -0.690254
1.204019 -4.823284 -0.690274
1.165885 -4.850521 -0.668411
1.165914 -4.877782 -0.668428
1.165939 -4.905044 -0.668442
1.127795 -4.932291 -0.646574
1.127814 -4.959555 -0.646585
1.127830 -4.986820 -0.646594
1.127843 -5.014086 -0.646601
1.127853 -5.041352 -0.646607
1.089689 -5.068616 -0.624727
1.089691 -5.095888 -0.624729
1.089690 -5.123161 -0.624728
1.089687 -5.150436 -0.624726
1.089679 -5.177712 -0.624722
1.089668 -5.204991 -0.624715
1.051475 -5.232285 -0.602819
1.051455 -5.259571 -0.602808
1.013250 -5.286878 -0.580905
0.351032 -3.675145 -0.224990
0.351109 -3.702513 -0.225039
0.425226 -3.729997 -0.272544
0.499348 -3.757480 -0.320052
0.573473 -3.784963 -0.367562
0.684630 -3.812505 -0.438806
0.721739 -3.839921 -0.462591
0.758849 -3.867333 -0.486376
0.758930 -3.894680 -0.486428
0.833073 -3.922147 -0.533950
0.870187 -3.949549 -0.557737
0.907302 -3.976947 -0.581526
0.944417 -4.004341 -0.605314
0.981534 -4.031731 -0.629104
0.981611 -4.059056 -0.629153
1.018727 -4.086438 -0.652942
1.018804 -4.113757 -0.652992
1.018879 -4.141072 -0.653040
1.018954 -4.168385 -0.653088
1.019027 -4.195693 -0.653135
1.056139 -4.223055 -0.676921
1.056211 -4.250358 -0.676967
1.056281 -4.277658 -0.677012
1.056350 -4.304954 -0.677056
1.093456 -4.332300 -0.700839
1.130562 -4.359642 -0.724622
1.130627 -4.386928 -0.724663
1.130690 -4.414213 -0.724704
1.130752 -4.441494 -0.724743
1.167850 -4.468820 -0.748521
1.167908 -4.496096 -0.748558
1.167964 -4.523369 -0.748594
1.205057 -4.550683 -0.772368
1.205110 -4.577951 -0.772402
1.205160 -4.605218 -0.772435
1.205209 -4.632484 -0.772466
1.205256 -4.659748 -0.772496
1.205300 -4.687010 -0.772524
1.205342 -4.714271 -0.772551
1.168346 -4.741501 -0.748839
1.168383 -4.768763 -0.748863
1.168418 -4.796023 -0.748885
1.131414 -4.823259 -0.725168
1.131444 -4.850521 -0.725187
1.131472 -4.877782 -0.725205
1.131496 -4.905044 -0.725220
1.094479 -4.932291 -0.701495
1.057457 -4.959542 -0.677766
1.094513 -4.986820 -0.701516
1.094525 -5.014086 -0.701524
1.094535 -5.041352 -0.701531
1.094542 -5.068620 -0.701535
1.094545 -5.095890 -0.701537
1.057500 -5.123161 -0.677794
1.057496 -5.150436 -0.677791
1.057489 -5.177712 -0.677786
1.020429 -5.205001 -0.654033
1.020414 -5.232285 -0.654023
0.983341 -5.259587 -0.630262
0.983318 -5.286878 -0.630247
0.946233 -5.314195 -0.606478
0.375292 -3.675204 -0.267582
0.375366 -3.702572 -0.267636
0.411244 -3.729997 -0.293216
0.447124 -3.757420 -0.318798
0.518810 -3.784902 -0.369911
0.626309 -3.812443 -0.446557
0.662197 -3.839858 -0.472145
0.698085 -3.867270 -0.497733
0.733975 -3.894680 -0.523323
0.769866 -3.922085 -0.548913
0.769944 -3.949426 -0.548968
0.841651 -3.976886 -0.600096
0.877545 -4.004280 -0.625688
0.877621 -4.031610 -0.625742
0.877697 -4.058937 -0.625796
0.913590 -4.086319 -0.651388
0.913664 -4.113639 -0.651441
0.913738 -4.140955 -0.651493
0.913810 -4.168269 -0.651545
0.949701 -4.195637 -0.677135
0.985591 -4.223000 -0.702725
0.985660 -4.250303 -0.702774
0.985729 -4.277604 -0.702823
1.021616 -4.304954 -0.728410
1.021682 -4.332248 -0.728457
1.057567 -4.359591 -0.754043
1.093450 -4.386928 -0.779628
1.093511 -4.414213 -0.779671
1.093571 -4.441494 -0.779714
1.093629 -4.468774 -0.779756
1.093686 -4.496051 -0.779796
1.093741 -4.523326 -0.779835
1.129614 -4.550642 -0.805412
1.129665 -4.577912 -0.805449
1.129713 -4.605180 -0.805483
1.129761 -4.632447 -0.805517
1.129806 -4.659712 -0.805550
1.129849 -4.686976 -0.805580
1.129890 -4.714240 -0.805610
1.129929 -4.741501 -0.805637
1.129965 -4.768763 -0.805663
1.094180 -4.795997 -0.780148
1.094212 -4.823259 -0.780171
1.094241 -4.850521 -0.780191
1.094267 -4.877782 -0.780211
1.094291 -4.905044 -0.780227
1.058491 -4.932291 -0.754702
1.058509 -4.959555 -0.754715
1.058524 -4.986820 -0.754726
1.058536 -5.014086 -0.754734
1.058545 -5.041352 -0.754741
1.058552 -5.068620 -0.754746
1.058555 -5.095890 -0.754748
1.058555 -5.123160 -0.754748
1.058552 -5.150432 -0.754746
