0.316037 -0.141066 -0.739061
0.316072 -0.153605 -0.739143
0.316106 -0.166144 -0.739223
0.316139 -0.184953 -0.739301
0.316172 -0.197492 -0.739378
0.316204 -0.210031 -0.739453
0.316235 -0.222571 -0.739526
0.316266 -0.235110 -0.739598
0.316296 -0.247649 -0.739667
0.333629 -0.260188 -0.780200
0.333657 -0.272727 -0.780267
0.333685 -0.285266 -0.780332
0.333712 -0.297806 -0.780395
0.333739 -0.316614 -0.780457
0.333764 -0.329154 -0.780516
0.333789 -0.341693 -0.780574
0.333812 -0.354232 -0.780629
0.333835 -0.366771 -0.780682
0.316549 -0.379310 -0.740259
0.316569 -0.391850 -0.740306
0.316589 -0.404389 -0.740352
0.299296 -0.416928 -0.699912
0.299313 -0.429467 -0.699952
0.299330 -0.448276 -0.699991
0.282029 -0.460815 -0.659534
0.282043 -0.473354 -0.659566
0.299373 -0.485893 -0.700091
0.316698 -0.498433 -0.740608
0.334020 -0.510972 -0.781115
0.368642 -0.523511 -0.862079
0.368652 -0.536050 -0.862102
0.385961 -0.548589 -0.902581
0.385969 -0.561128 -0.902599
0.403273 -0.579937 -0.943065
0.403278 -0.592476 -0.943078
0.403283 -0.605016 -0.943088
0.420580 -0.617555 -0.983537
0.420582 -0.630094 -0.983542
0.420583 -0.642633 -0.983544
0.437872 -0.655172 -1.023977
0.455157 -0.667712 -1.064397
0.455154 -0.680251 -1.064390
0.455149 -0.692790 -1.064380
0.455144 -0.711599 -1.064366
0.455137 -0.724138 -1.064350
0.437843 -0.736677 -1.023908
0.437834 -0.749216 -1.023887
0.437824 -0.761755 -1.023863
0.420523 -0.774295 -0.983406
0.420511 -0.786834 -0.983376
0.403205 -0.799373 -0.942907
0.403191 -0.811912 -0.942873
0.403175 -0.824451 -0.942835
0.403158 -0.843260 -0.942796
0.403140 -0.855799 -0.942753
0.403120 -0.868339 -0.942708
0.403100 -0.880878 -0.942660
0.403078 -0.893417 -0.942609
0.403056 -0.905956 -0.942557
0.403031 -0.918495 -0.942500
0.403007 -0.931034 -0.942442
0.402981 -0.943574 -0.942382
0.402953 -0.956113 -0.942318
0.402925 -0.974922 -0.942252
0.402896 -0.987461 -0.942183
0.402865 -1.000000 -0.942112
0.385547 -1.012539 -0.901612
0.385515 -1.025078 -0.901537
0.385482 -1.037617 -0.901461
0.385449 -1.050157 -0.901382
0.385414 -1.062696 -0.901301
0.385378 -1.075235 -0.901217
0.385341 -1.087774 -0.901132
0.385304 -1.106583 -0.901044
0.385265 -1.119122 -0.900954
0.385226 -1.131661 -0.900862
0.385186 -1.144201 -0.900768
0.367863 -1.156740 -0.860257
0.367822 -1.169279 -0.860161
0.367780 -1.181818 -0.860063
0.367737 -1.194357 -0.859963
0.367694 -1.206897 -0.859862
0.367649 -1.219436 -0.859759
0.367605 -1.238245 -0.859653
0.367559 -1.250784 -0.859547
0.367513 -1.263323 -0.859439
0.350188 -1.275862 -0.818925
0.350142 -1.288401 -0.818817
0.350094 -1.300941 -0.818705
0.350047 -1.313480 -0.818594
0.349998 -1.326019 -0.818481
0.349949 -1.338558 -0.818366
0.349900 -1.351097 -0.818250
0.349850 -1.369906 -0.818134
0.349799 -1.382445 -0.818015
0.332477 -1.394984 -0.777507
0.332426 -1.407523 -0.777388
0.332376 -1.420063 -0.777270
0.332324 -1.432602 -0.777150
0.332273 -1.445141 -0.777030
0.332221 -1.457680 -0.776908
0.332169 -1.470219 -0.776785
0.314849 -1.482759 -0.736284
0.314797 -1.501567 -0.736162
0.314745 -1.514107 -0.736041
0.297427 -1.526646 -0.695541
0.297375 -1.539185 -0.695421
0.297324 -1.551724 -0.695300
0.297272 -1.564263 -0.695178
0.279956 -1.576802 -0.654684
0.279904 -1.589342 -0.654564
0.279853 -1.601881 -0.654444
0.279802 -1.614420 -0.654324
0.262488 -1.633229 -0.613836
0.262438 -1.645768 -0.613718
0.262387 -1.658307 -0.613599
0.245076 -1.670846 -0.573116
0.245026 -1.683386 -0.572999
0.227716 -1.695925 -0.532520
0.227667 -1.708464 -0.532406
0.210358 -1.721003 -0.491929
0.210311 -1.733542 -0.491817
0.193003 -1.746082 -0.451343
0.175696 -1.764890 -0.410870
0.175650 -1.777430 -0.410763
0.192863 -1.789969 -0.451017
0.192817 -1.802508 -0.450908
0.210026 -1.815047 -0.491152
0.227231 -1.827586 -0.531387
-0.023977 0.398119 0.076370
-0.023954 0.385580 0.076297
-0.010749 0.373041 0.034236
0.160559 0.360502 -0.511405
0.160590 0.341693 -0.511504
0.173789 0.329154 -0.553547
0.186989 0.316614 -0.595589
0.200188 0.304075 -0.637630
0.200221 0.291536 -0.637734
0.200253 0.278997 -0.637839
0.213453 0.266458 -0.679882
0.213486 0.253918 -0.679988
0.213520 0.241379 -0.680094
0.226720 0.228840 -0.722139
0.226754 0.210031 -0.722246
0.226787 0.197492 -0.722354
0.226821 0.184953 -0.722461
0.226855 0.172414 -0.722568
0.226888 0.159875 -0.722674
0.226921 0.147335 -0.722780
0.213783 0.134796 -0.680934
0.213816 0.122257 -0.681038
0.213848 0.109718 -0.681141
0.213880 0.097179 -0.681243
0.213912 0.078370 -0.681344
0.227117 0.065831 -0.723405
0.227149 0.053292 -0.723506
0.240354 0.040752 -0.765565
0.240386 0.028213 -0.765667
0.266760 0.015674 -0.849672
0.266792 0.003135 -0.849775
0.279993 -0.009404 -0.891823
0.266856 -0.021944 -0.849979
0.253715 -0.034483 -0.808123
0.240571 -0.053292 -0.766257
0.240601 -0.065831 -0.766352
0.240630 -0.078370 -0.766445
0.227481 -0.090909 -0.724562
0.240687 -0.103448 -0.766627
0.240715 -0.115987 -0.766717
0.240743 -0.128527 -0.766804
0.240770 -0.141066 -0.766890
0.240796 -0.153605 -0.766975
0.240822 -0.166144 -0.767058
0.240848 -0.184953 -0.767139
0.240873 -0.197492 -0.767219
0.254078 -0.210031 -0.809279
0.254102 -0.222571 -0.809356
0.254126 -0.235110 -0.809432
0.254149 -0.247649 -0.809506
0.267352 -0.260188 -0.851558
0.267374 -0.272727 -0.851629
0.267396 -0.285266 -0.851699
0.267417 -0.297806 -0.851765
0.267437 -0.316614 -0.851830
0.267457 -0.329154 -0.851893
0.267476 -0.341693 -0.851953
0.267494 -0.354232 -0.852012
0.254329 -0.366771 -0.810078
0.254345 -0.379310 -0.810131
0.254361 -0.391850 -0.810182
0.254377 -0.404389 -0.810230
0.241205 -0.416928 -0.768275
0.241218 -0.429467 -0.768317
0.228042 -0.448276 -0.726349
0.214861 -0.460815 -0.684368
0.214872 -0.473354 -0.684402
0.228074 -0.485893 -0.726453
0.241274 -0.498433 -0.768495
0.294018 -0.510972 -0.936494
0.320379 -0.523511 -1.020458
0.333559 -0.536050 -1.062439
0.333566 -0.548589 -1.062461
0.333572 -0.561128 -1.062481
0.333577 -0.579937 -1.062497
0.333582 -0.592476 -1.062511
0.333585 -0.605016 -1.062521
0.346757 -0.617555 -1.104477
0.359926 -0.630094 -1.146421
0.359926 -0.642633 -1.146422
0.373090 -0.655172 -1.188350
0.373088 -0.667712 -1.188344
0.359921 -0.680251 -1.146407
0.359918 -0.692790 -1.146396
0.359913 -0.711599 -1.146382
0.359908 -0.724138 -1.146365
0.359902 -0.736677 -1.146345
0.359894 -0.749216 -1.146321
0.359886 -0.761755 -1.146294
0.359877 -0.774295 -1.146265
0.359867 -0.786834 -1.146232
0.359855 -0.799373 -1.146197
0.346678 -0.811912 -1.104226
0.333498 -0.824451 -1.062244
0.320315 -0.843260 -1.020253
0.320301 -0.855799 -1.020208
0.320285 -0.868339 -1.020160
0.307098 -0.880878 -0.978156
0.307081 -0.893417 -0.978103
0.307064 -0.905956 -0.978048
0.307046 -0.918495 -0.977990
0.307027 -0.931034 -0.977929
0.307007 -0.943574 -0.977866
0.306986 -0.956113 -0.977800
0.306965 -0.974922 -0.977732
0.306942 -0.987461 -0.977661
0.306919 -1.000000 -0.977587
0.306895 -1.012539 -0.977511
0.293701 -1.025078 -0.935485
0.293676 -1.037617 -0.935405
0.293650 -1.050157 -0.935323
0.293624 -1.062696 -0.935239
0.293597 -1.075235 -0.935152
0.293569 -1.087774 -0.935064
0.293540 -1.106583 -0.934972
0.293511 -1.119122 -0.934879
0.293481 -1.131661 -0.934784
0.280283 -1.144201 -0.892747
0.280253 -1.156740 -0.892650
0.280221 -1.169279 -0.892550
0.280190 -1.181818 -0.892448
0.280157 -1.194357 -0.892345
0.280124 -1.206897 -0.892239
0.280090 -1.219436 -0.892133
0.280056 -1.238245 -0.892023
0.280021 -1.250784 -0.891913
0.266823 -1.263323 -0.849873
0.266788 -1.275862 -0.849762
0.266752 -1.288401 -0.849649
0.266716 -1.300941 -0.849533
0.266680 -1.313480 -0.849418
0.266643 -1.326019 -0.849300
0.266606 -1.338558 -0.849181
0.266568 -1.351097 -0.849061
0.266530 -1.369906 -0.848940
0.253332 -1.382445 -0.806904
0.253294 -1.394984 -0.806783
0.253256 -1.407523 -0.806661
0.253217 -1.420063 -0.806538
0.253178 -1.432602 -0.806413
0.253139 -1.445141 -0.806288
0.239943 -1.457680 -0.764258
0.239904 -1.470219 -0.764134
0.239865 -1.482759 -0.764008
0.239825 -1.501567 -0.763882
0.239786 -1.514107 -0.763756
0.226592 -1.526646 -0.721731
0.226553 -1.539185 -0.721606
0.226513 -1.551724 -0.721481
0.226474 -1.564263 -0.721355
0.213282 -1.576802 -0.679336
0.213242 -1.589342 -0.679211
0.213203 -1.601881 -0.679087
0.213164 -1.614420 -0.678962
0.199974 -1.633229 -0.636950
0.199936 -1.645768 -0.636827
0.186746 -1.658307 -0.594817
0.186709 -1.670846 -0.594697
0.186671 -1.683386 -0.594576
0.173483 -1.695925 -0.552572
0.173446 -1.708464 -0.552453
0.160260 -1.721003 -0.510452
0.160223 -1.733542 -0.510336
0.147038 -1.746082 -0.468338
0.133852 -1.764890 -0.426341
0.133818 -1.777430 -0.426230
0.146931 -1.789969 -0.468000
0.160042 -1.802508 -0.509760
0.160006 -1.815047 -0.509646
0.073019 0.398119 -0.352364
0.073039 0.385580 -0.352458
0.081981 0.373041 -0.395612
0.090924 0.360502 -0.438765
0.099866 0.341693 -0.481917
0.099887 0.329154 -0.482018
0.108830 0.316614 -0.525172
0.117772 0.304075 -0.568325
0.126714 0.291536 -0.611477
0.126736 0.278997 -0.611582
0.135679 0.266458 -0.654735
0.135701 0.253918 -0.654842
0.135723 0.241379 -0.654950
0.135745 0.228840 -0.655056
0.144688 0.210031 -0.698213
0.144711 0.197492 -0.698321
0.144733 0.184953 -0.698429
0.144755 0.172414 -0.698537
0.144778 0.159875 -0.698644
0.144800 0.147335 -0.698751
0.144822 0.134796 -0.698857
0.144844 0.122257 -0.698964
0.144866 0.109718 -0.699069
0.127037 0.097179 -0.613036
0.127058 0.078370 -0.613136
0.127079 0.065831 -0.613235
0.127099 0.053292 -0.613334
0.127119 0.040752 -0.613432
0.136067 0.028213 -0.656611
0.136087 0.015674 -0.656708
0.145035 0.003135 -0.699886
0.153982 -0.009404 -0.743059
0.162927 -0.021944 -0.786229
0.171873 -0.034483 -0.829394
0.171893 -0.053292 -0.829495
0.171914 -0.065831 -0.829593
0.171934 -0.078370 -0.829690
0.180878 -0.090909 -0.872852
0.180898 -0.103448 -0.872949
0.180918 -0.115987 -0.873043
0.180937 -0.128527 -0.873136
0.180956 -0.141066 -0.873228
0.189899 -0.153605 -0.916385
0.189918 -0.166144 -0.916474
0.189936 -0.184953 -0.916562
0.189954 -0.197492 -0.916649
0.189971 -0.210031 -0.916732
0.189988 -0.222571 -0.916815
0.190005 -0.235110 -0.916896
0.190021 -0.247649 -0.916974
0.190037 -0.260188 -0.917050
0.190053 -0.272727 -0.917125
0.190067 -0.285266 -0.917197
0.190082 -0.297806 -0.917266
0.181168 -0.316614 -0.874251
0.181181 -0.329154 -0.874315
0.181194 -0.341693 -0.874378
0.181207 -0.354232 -0.874438
0.190147 -0.366771 -0.917582
0.181230 -0.379310 -0.874550
0.181241 -0.391850 -0.874603
0.172320 -0.404389 -0.831556
0.163397 -0.416928 -0.788497
0.154472 -0.429467 -0.745426
0.145544 -0.448276 -0.702344
0.145552 -0.460815 -0.702381
0.145559 -0.473354 -0.702416
0.163438 -0.485893 -0.788691
0.181310 -0.498433 -0.874934
0.199175 -0.510972 -0.961144
0.225955 -0.523511 -1.090378
0.225961 -0.536050 -1.090404
0.225965 -0.548589 -1.090427
0.234891 -0.561128 -1.133498
0.234895 -0.579937 -1.133516
0.234897 -0.592476 -1.133529
0.234900 -0.605016 -1.133540
0.243821 -0.617555 -1.176591
0.243822 -0.630094 -1.176596
0.252740 -0.642633 -1.219630
0.252739 -0.655172 -1.219628
0.252738 -0.667712 -1.219623
0.261652 -0.680251 -1.262638
0.261650 -0.692790 -1.262626
0.261646 -0.711599 -1.262611
0.261643 -0.724138 -1.262593
0.261638 -0.736677 -1.262571
0.261633 -0.749216 -1.262546
0.270540 -0.761755 -1.305528
0.270533 -0.774295 -1.305496
0.270526 -0.786834 -1.305461
0.279429 -0.799373 -1.348422
0.279420 -0.811912 -1.348379
0.279410 -0.824451 -1.348333
0.279400 -0.843260 -1.348284
0.279389 -0.855799 -1.348232
0.270468 -0.868339 -1.305180
0.270456 -0.880878 -1.305122
0.252618 -0.893417 -1.219044
0.234774 -0.905956 -1.132932
0.225842 -0.918495 -1.089832
0.216909 -0.931034 -1.046723
0.199050 -0.943574 -0.960545
0.199037 -0.956113 -0.960478
0.199022 -0.974922 -0.960409
0.199008 -0.987461 -0.960338
0.198992 -1.000000 -0.960263
0.198976 -1.012539 -0.960187
0.198960 -1.025078 -0.960108
0.198943 -1.037617 -0.960026
0.198925 -1.050157 -0.959942
0.198908 -1.062696 -0.959856
0.198889 -1.075235 -0.959767
0.198870 -1.087774 -0.959676
0.198851 -1.106583 -0.959582
0.198831 -1.119122 -0.959486
0.198811 -1.131661 -0.959388
0.198790 -1.144201 -0.959288
0.198769 -1.156740 -0.959186
0.198747 -1.169279 -0.959082
0.198725 -1.181818 -0.958975
0.198703 -1.194357 -0.958867
0.189762 -1.206897 -0.915724
0.189740 -1.219436 -0.915615
0.189716 -1.238245 -0.915502
0.189693 -1.250784 -0.915389
0.189669 -1.263323 -0.915274
0.189645 -1.275862 -0.915157
0.180704 -1.288401 -0.872013
0.180680 -1.300941 -0.871894
0.180655 -1.313480 -0.871776
0.180630 -1.326019 -0.871655
0.180605 -1.338558 -0.871533
0.180579 -1.351097 -0.871409
0.171639 -1.369906 -0.828266
0.171613 -1.382445 -0.828143
0.171587 -1.394984 -0.828019
0.171561 -1.407523 -0.827893
0.171535 -1.420063 -0.827767
0.171509 -1.432602 -0.827639
0.162569 -1.445141 -0.784500
0.162543 -1.457680 -0.784374
0.162517 -1.470219 -0.784246
0.162490 -1.482759 -0.784118
0.153551 -1.501567 -0.740983
0.153525 -1.514107 -0.740856
0.153499 -1.526646 -0.740728
0.153472 -1.539185 -0.740600
0.153445 -1.551724 -0.740471
0.144508 -1.564263 -0.697344
0.144482 -1.576802 -0.697217
0.144455 -1.589342 -0.697089
0.144429 -1.601881 -0.696961
0.135493 -1.614420 -0.653840
0.135467 -1.633229 -0.653715
0.135441 -1.645768 -0.653589
0.126506 -1.658307 -0.610473
0.126481 -1.670846 -0.610350
0.117546 -1.683386 -0.567237
0.117521 -1.695925 -0.567116
0.108588 -1.708464 -0.524006
0.108563 -1.721003 -0.523888
0.099631 -1.733542 -0.480781
0.099607 -1.746082 -0.480666
0.090675 -1.764890 -0.437563
0.090651 -1.777430 -0.437449
0.099535 -1.789969 -0.480318
0.099511 -1.802508 -0.480202
0.108392 -1.815047 -0.523060
0.126174 -1.827586 -0.608872
0.135051 -1.840125 -0.651707
0.037521 0.398119 -0.357889
0.042116 0.385580 -0.401717
0.042126 0.373041 -0.401815
0.046721 0.360502 -0.445644
0.046731 0.341693 -0.445745
0.051327 0.329154 -0.489576
0.051337 0.316614 -0.489677
0.055933 0.304075 -0.533509
0.060528 0.291536 -0.577341
0.060539 0.278997 -0.577447
0.060550 0.266458 -0.577552
0.065146 0.253918 -0.621386
0.065157 0.241379 -0.621493
0.065168 0.228840 -0.621600
0.065179 0.210031 -0.621706
0.069775 0.197492 -0.665544
0.069786 0.184953 -0.665652
0.069798 0.172414 -0.665760
0.069809 0.159875 -0.665867
0.069820 0.147335 -0.665973
0.069831 0.134796 -0.666079
0.069842 0.122257 -0.666185
0.069853 0.109718 -0.666291
0.074450 0.097179 -0.710137
0.074461 0.078370 -0.710242
0.074472 0.065831 -0.710347
0.079069 0.053292 -0.754193
0.083665 0.040752 -0.798035
0.088261 0.028213 -0.841874
0.088273 0.015674 -0.841981
0.092868 0.003135 -0.885817
0.092879 -0.009404 -0.885924
0.097475 -0.021944 -0.929756
0.097486 -0.034483 -0.929862
0.097497 -0.053292 -0.929967
0.102092 -0.065831 -0.973794
0.102103 -0.078370 -0.973898
0.102113 -0.090909 -0.974001
0.102124 -0.103448 -0.974101
0.102134 -0.115987 -0.974200
0.102144 -0.128527 -0.974298
0.102155 -0.141066 -0.974394
0.102165 -0.153605 -0.974488
0.102174 -0.166144 -0.974580
0.102184 -0.184953 -0.974671
0.102193 -0.197492 -0.974760
0.102202 -0.210031 -0.974847
0.102211 -0.222571 -0.974931
0.102220 -0.235110 -0.975015
0.102228 -0.247649 -0.975096
0.102236 -0.260188 -0.975174
0.102244 -0.272727 -0.975251
0.102252 -0.285266 -0.975325
0.102260 -0.297806 -0.975397
0.102267 -0.316614 -0.975467
0.097687 -0.329154 -0.931783
0.097694 -0.341693 -0.931848
0.097701 -0.354232 -0.931909
0.097707 -0.366771 -0.931969
0.093125 -0.379310 -0.888262
0.088541 -0.391850 -0.844544
0.083957 -0.404389 -0.800813
0.083961 -0.416928 -0.800860
0.079375 -0.429467 -0.757114
0.074788 -0.448276 -0.713356
0.074792 -0.460815 -0.713394
0.074795 -0.473354 -0.713430
0.070206 -0.485893 -0.669654
0.074802 -0.498433 -0.713493
0.102345 -0.510972 -0.976214
0.102348 -0.523511 -0.976242
0.106938 -0.536050 -1.020020
0.111527 -0.548589 -1.063788
0.116114 -0.561128 -1.107544
0.116116 -0.579937 -1.107561
0.120701 -0.592476 -1.151302
0.120703 -0.605016 -1.151313
0.125287 -0.617555 -1.195039
0.125287 -0.630094 -1.195044
0.125287 -0.642633 -1.195045
0.129870 -0.655172 -1.238751
0.129869 -0.667712 -1.238746
0.129868 -0.680251 -1.238737
0.134448 -0.692790 -1.282423
0.134447 -0.711599 -1.282408
0.134445 -0.724138 -1.282389
0.139022 -0.736677 -1.326054
0.139020 -0.749216 -1.326027
0.139016 -0.761755 -1.325998
0.139013 -0.774295 -1.325965
0.139009 -0.786834 -1.325929
0.143584 -0.799373 -1.369564
0.139001 -0.811912 -1.325847
0.138996 -0.824451 -1.325802
0.138991 -0.843260 -1.325752
0.138985 -0.855799 -1.325699
0.138979 -0.868339 -1.325644
0.138973 -0.880878 -1.325585
0.138967 -0.893417 -1.325523
0.134381 -0.905956 -1.281781
0.106880 -0.918495 -1.019469
0.106874 -0.931034 -1.019407
0.102282 -0.943574 -0.975605
0.097689 -0.956113 -0.931795
0.097681 -0.974922 -0.931727
0.097674 -0.987461 -0.931656
0.097666 -1.000000 -0.931582
0.097658 -1.012539 -0.931506
0.097650 -1.025078 -0.931427
0.097641 -1.037617 -0.931346
0.097633 -1.050157 -0.931262
0.097624 -1.062696 -0.931176
0.097614 -1.075235 -0.931087
0.097605 -1.087774 -0.930997
0.097595 -1.106583 -0.930904
0.097585 -1.119122 -0.930808
0.097575 -1.131661 -0.930711
0.097564 -1.144201 -0.930611
0.097554 -1.156740 -0.930510
0.092959 -1.169279 -0.886684
0.092948 -1.181818 -0.886580
0.092937 -1.194357 -0.886474
0.092926 -1.206897 -0.886367
0.092915 -1.219436 -0.886258
0.092903 -1.238245 -0.886147
0.092891 -1.250784 -0.886033
0.092879 -1.263323 -0.885919
0.092867 -1.275862 -0.885803
0.092854 -1.288401 -0.885685
0.092842 -1.300941 -0.885565
0.088247 -1.313480 -0.841741
0.088235 -1.326019 -0.841621
0.088222 -1.338558 -0.841500
0.088209 -1.351097 -0.841377
0.088196 -1.369906 -0.841253
0.088183 -1.382445 -0.841128
0.083589 -1.394984 -0.797306
0.088156 -1.407523 -0.840874
0.088143 -1.420063 -0.840746
0.083549 -1.432602 -0.796929
0.083536 -1.445141 -0.796801
0.083522 -1.457680 -0.796672
0.083509 -1.470219 -0.796543
0.083495 -1.482759 -0.796412
0.078902 -1.501567 -0.752601
0.078889 -1.514107 -0.752472
0.078875 -1.526646 -0.752342
0.078861 -1.539185 -0.752212
0.074269 -1.551724 -0.708406
0.074255 -1.564263 -0.708277
0.074242 -1.576802 -0.708149
0.074228 -1.589342 -0.708019
0.069636 -1.601881 -0.664219
0.069623 -1.614420 -0.664092
0.069609 -1.633229 -0.663965
0.065018 -1.645768 -0.620170
0.065005 -1.658307 -0.620045
0.060414 -1.670846 -0.576254
0.060401 -1.683386 -0.576130
0.060388 -1.695925 -0.576008
0.055798 -1.708464 -0.532222
0.051207 -1.721003 -0.488437
0.051195 -1.733542 -0.488319
0.046605 -1.746082 -0.444539
0.046593 -1.764890 -0.444424
0.046581 -1.777430 -0.444308
0.051146 -1.789969 -0.487849
0.055709 -1.802508 -0.531381
0.060272 -1.815047 -0.574904
0.064834 -1.827586 -0.618418
0.069396 -1.840125 -0.661925
0.001649 0.398119 -0.359846
0.001850 0.385580 -0.403914
0.001851 0.373041 -0.404013
0.002053 0.360502 -0.448082
0.002053 0.341693 -0.448183
0.002255 0.329154 -0.492254
0.002457 0.316614 -0.536324
0.002457 0.304075 -0.536428
0.002458 0.291536 -0.536532
0.002660 0.278997 -0.580605
0.002660 0.266458 -0.580711
0.002661 0.253918 -0.580817
0.002661 0.241379 -0.580923
0.002863 0.228840 -0.625000
0.002864 0.210031 -0.625107
0.002864 0.197492 -0.625214
0.002865 0.184953 -0.625321
0.002865 0.172414 -0.625427
0.002866 0.159875 -0.625532
0.002866 0.147335 -0.625638
0.002867 0.134796 -0.625743
0.002867 0.122257 -0.625847
0.002868 0.109718 -0.625951
0.003070 0.097179 -0.670040
0.003272 0.078370 -0.714127
0.003473 0.065831 -0.758212
0.003675 0.053292 -0.802293
0.003877 0.040752 -0.846371
0.004079 0.028213 -0.890445
0.004281 0.015674 -0.934514
0.004282 0.003135 -0.934625
0.004282 -0.009404 -0.934734
0.004283 -0.021944 -0.934841
0.004283 -0.034483 -0.934948
0.004284 -0.053292 -0.935054
0.004486 -0.065831 -0.979121
0.004486 -0.078370 -0.979225
0.004486 -0.090909 -0.979328
0.004688 -0.103448 -1.023390
0.004689 -0.115987 -1.023491
0.004689 -0.128527 -1.023591
0.004690 -0.141066 -1.023689
0.004690 -0.153605 -1.023785
0.004691 -0.166144 -1.023879
0.004691 -0.184953 -1.023972
0.004691 -0.197492 -1.024063
0.004692 -0.210031 -1.024151
0.004692 -0.222571 -1.024238
0.004693 -0.235110 -1.024322
0.004693 -0.247649 -1.024405
0.004693 -0.260188 -1.024485
0.004694 -0.272727 -1.024564
0.004694 -0.285266 -1.024640
0.004493 -0.297806 -0.980733
0.004493 -0.316614 -0.980803
0.004494 -0.329154 -0.980871
0.004292 -0.341693 -0.936945
0.004293 -0.354232 -0.937007
0.004293 -0.366771 -0.937067
0.003890 -0.379310 -0.849110
0.003688 -0.391850 -0.805144
0.003689 -0.404389 -0.805194
0.003487 -0.416928 -0.761211
0.003487 -0.429467 -0.761255
0.003488 -0.448276 -0.761297
0.003488 -0.460815 -0.761335
0.003286 -0.473354 -0.717332
0.003286 -0.485893 -0.717365
0.003085 -0.498433 -0.673347
0.003287 -0.510972 -0.717425
0.004900 -0.592476 -1.069659
0.004900 -0.605016 -1.069670
0.005102 -0.617555 -1.113653
0.005102 -0.630094 -1.113657
0.005303 -0.642633 -1.157625
0.005505 -0.655172 -1.201580
0.005505 -0.667712 -1.201575
0.005505 -0.680251 -1.201567
0.005706 -0.692790 -1.245501
0.005706 -0.711599 -1.245486
0.005706 -0.724138 -1.245467
0.005907 -0.736677 -1.289382
0.005907 -0.749216 -1.289356
0.005907 -0.761755 -1.289327
0.006108 -0.774295 -1.333218
0.006108 -0.786834 -1.333182
0.006107 -0.799373 -1.333143
0.006308 -0.811912 -1.377012
0.006308 -0.824451 -1.376965
0.006308 -0.843260 -1.376915
0.006308 -0.855799 -1.376861
0.006307 -0.868339 -1.376804
0.006307 -0.880878 -1.376744
0.006307 -0.893417 -1.376680
0.006105 -0.905956 -1.332708
0.006105 -0.918495 -1.332639
0.004696 -0.931034 -1.024983
0.004695 -0.943574 -1.024917
0.004494 -0.956113 -0.980874
0.004493 -0.974922 -0.980804
0.004291 -0.987461 -0.936752
0.004291 -1.000000 -0.936678
0.004291 -1.012539 -0.936601
0.004290 -1.025078 -0.936522
0.004290 -1.037617 -0.936440
0.004290 -1.050157 -0.936356
0.004289 -1.062696 -0.936270
0.004289 -1.075235 -0.936181
0.004288 -1.087774 -0.936090
0.004288 -1.106583 -0.935996
0.004288 -1.119122 -0.935900
0.004287 -1.131661 -0.935802
0.004287 -1.144201 -0.935702
0.004286 -1.156740 -0.935600
0.004286 -1.169279 -0.935495
0.004084 -1.181818 -0.891430
0.004083 -1.194357 -0.891324
0.004083 -1.206897 -0.891216
0.004082 -1.219436 -0.891106
0.004082 -1.238245 -0.890994
0.003880 -1.250784 -0.846925
0.003879 -1.263323 -0.846813
0.003879 -1.275862 -0.846698
0.003878 -1.288401 -0.846583
0.003878 -1.300941 -0.846465
0.003877 -1.313480 -0.846345
0.003877 -1.326019 -0.846225
0.003876 -1.338558 -0.846103
0.003674 -1.351097 -0.802038
0.003674 -1.369906 -0.801916
0.003673 -1.382445 -0.801792
0.003673 -1.394984 -0.801668
0.003672 -1.407523 -0.801542
0.003671 -1.420063 -0.801415
0.003671 -1.432602 -0.801288
0.003670 -1.445141 -0.801159
0.003670 -1.457680 -0.801030
0.003669 -1.470219 -0.800900
0.003668 -1.482759 -0.800768
0.003467 -1.501567 -0.756718
0.003466 -1.514107 -0.756588
0.003465 -1.526646 -0.756457
0.003264 -1.539185 -0.712410
0.003263 -1.551724 -0.712281
0.003262 -1.564263 -0.712152
0.003262 -1.576802 -0.712022
0.003261 -1.589342 -0.711892
0.003060 -1.601881 -0.667853
0.003059 -1.614420 -0.667725
0.003058 -1.633229 -0.667597
0.002857 -1.645768 -0.623563
0.002856 -1.658307 -0.623437
0.002855 -1.670846 -0.623310
0.002654 -1.683386 -0.579282
0.002653 -1.695925 -0.579159
0.002452 -1.708464 -0.535133
0.002451 -1.721003 -0.535013
0.002249 -1.733542 -0.490990
0.002249 -1.746082 -0.490873
0.002047 -1.764890 -0.446855
0.002047 -1.777430 -0.446739
0.002247 -1.789969 -0.490517
0.002448 -1.802508 -0.534287
0.002648 -1.815047 -0.578049
0.002849 -1.827586 -0.621801
0.003049 -1.840125 -0.665546
0.003249 -1.852664 -0.709283
-0.025854 0.423198 -0.270480
-0.030047 0.410658 -0.314349
-0.034240 0.398119 -0.358217
-0.038433 0.385580 -0.402086
-0.038443 0.373041 -0.402184
-0.042636 0.360502 -0.446053
-0.042646 0.341693 -0.446154
-0.046839 0.329154 -0.490025
-0.051032 0.316614 -0.533896
-0.055226 0.304075 -0.577766
-0.055236 0.291536 -0.577871
-0.055246 0.278997 -0.577977
-0.055256 0.266458 -0.578082
-0.055266 0.253918 -0.578188
-0.055276 0.241379 -0.578293
-0.055286 0.228840 -0.578398
-0.059480 0.210031 -0.622278
-0.059490 0.197492 -0.622383
-0.059501 0.184953 -0.622490
-0.059511 0.172414 -0.622596
-0.059521 0.159875 -0.622701
-0.059531 0.147335 -0.622806
-0.059541 0.134796 -0.622910
-0.059551 0.122257 -0.623014
-0.059561 0.109718 -0.623117
-0.059570 0.097179 -0.623219
-0.059580 0.078370 -0.623321
-0.067961 0.065831 -0.711000
-0.080524 0.053292 -0.842430
-0.084717 0.040752 -0.886304
-0.084728 0.028213 -0.886414
-0.088921 0.015674 -0.930284
-0.093114 0.003135 -0.974151
-0.097306 -0.009404 -1.018012
-0.093135 -0.021944 -0.974370
-0.093145 -0.034483 -0.974477
-0.093155 -0.053292 -0.974584
-0.093165 -0.065831 -0.974689
-0.093175 -0.078370 -0.974793
-0.093185 -0.090909 -0.974895
-0.093195 -0.103448 -0.974996
-0.093204 -0.115987 -0.975095
-0.093214 -0.128527 -0.975192
-0.097406 -0.141066 -1.019055
-0.097415 -0.153605 -1.019151
-0.097424 -0.166144 -1.019245
-0.097433 -0.184953 -1.019336
-0.097442 -0.197492 -1.019427
-0.097450 -0.210031 -1.019515
-0.097458 -0.222571 -1.019602
-0.097466 -0.235110 -1.019685
-0.093290 -0.247649 -0.975991
-0.093297 -0.260188 -0.976070
-0.089119 -0.272727 -0.932360
-0.089126 -0.285266 -0.932433
-0.089133 -0.297806 -0.932504
-0.084953 -0.316614 -0.888775
-0.084960 -0.329154 -0.888840
-0.084966 -0.341693 -0.888903
-0.080784 -0.354232 -0.845155
-0.080789 -0.366771 -0.845212
-0.080795 -0.379310 -0.845267
-0.080800 -0.391850 -0.845320
-0.080804 -0.404389 -0.845370
-0.080809 -0.416928 -0.845417
-0.076625 -0.429467 -0.801640
-0.076629 -0.448276 -0.801682
-0.072443 -0.460815 -0.757889
-0.068256 -0.473354 -0.714085
-0.068259 -0.485893 -0.714118
-0.064070 -0.498433 -0.670299
-0.064073 -0.510972 -0.670327
-0.064075 -0.523511 -0.670352
-0.059885 -0.536050 -0.626517
-0.064080 -0.548589 -0.670396
-0.059889 -0.561128 -0.626554
-0.097597 -0.655172 -1.021057
-0.097597 -0.667712 -1.021053
-0.097596 -0.680251 -1.021045
-0.101780 -0.692790 -1.064819
-0.101779 -0.711599 -1.064806
-0.110145 -0.724138 -1.152327
-0.110143 -0.736677 -1.152307
-0.114323 -0.749216 -1.196038
-0.114320 -0.761755 -1.196010
-0.114317 -0.774295 -1.195979
-0.114314 -0.786834 -1.195945
-0.118492 -0.799373 -1.239651
-0.118488 -0.811912 -1.239609
-0.118484 -0.824451 -1.239565
-0.122659 -0.843260 -1.283248
-0.122654 -0.855799 -1.283197
-0.122649 -0.868339 -1.283142
-0.118464 -0.880878 -1.239356
-0.118458 -0.893417 -1.239295
-0.118452 -0.905956 -1.239232
-0.097529 -0.931034 -1.020343
-0.093339 -0.943574 -0.976501
-0.093332 -0.956113 -0.976434
-0.089141 -0.974922 -0.932583
-0.089134 -0.987461 -0.932512
-0.089127 -1.000000 -0.932438
-0.089120 -1.012539 -0.932361
-0.089112 -1.025078 -0.932282
-0.089104 -1.037617 -0.932201
-0.089096 -1.050157 -0.932117
-0.089088 -1.062696 -0.932031
-0.089080 -1.075235 -0.931943
-0.089071 -1.087774 -0.931852
-0.089062 -1.106583 -0.931759
-0.089053 -1.119122 -0.931664
-0.089043 -1.131661 -0.931566
-0.084851 -1.144201 -0.887700
-0.084841 -1.156740 -0.887601
-0.084831 -1.169279 -0.887499
-0.084821 -1.181818 -0.887395
-0.084811 -1.194357 -0.887289
-0.084801 -1.206897 -0.887182
-0.084791 -1.219436 -0.887072
-0.084780 -1.238245 -0.886961
-0.084769 -1.250784 -0.886847
-0.084758 -1.263323 -0.886733
-0.084747 -1.275862 -0.886616
-0.080554 -1.288401 -0.842750
-0.080543 -1.300941 -0.842633
-0.080532 -1.313480 -0.842514
-0.080520 -1.326019 -0.842394
-0.080508 -1.338558 -0.842273
-0.080497 -1.351097 -0.842150
-0.080485 -1.369906 -0.842026
-0.080473 -1.382445 -0.841900
-0.080461 -1.394984 -0.841774
-0.076268 -1.407523 -0.797914
-0.076256 -1.420063 -0.797788
-0.076244 -1.432602 -0.797661
-0.076232 -1.445141 -0.797533
-0.076220 -1.457680 -0.797404
-0.076207 -1.470219 -0.797274
-0.072016 -1.482759 -0.753421
-0.072003 -1.501567 -0.753293
-0.071991 -1.514107 -0.753163
-0.071979 -1.526646 -0.753033
-0.067787 -1.539185 -0.709185
-0.067775 -1.551724 -0.709057
-0.067763 -1.564263 -0.708928
-0.067750 -1.576802 -0.708799
-0.063560 -1.589342 -0.664957
-0.063548 -1.601881 -0.664830
-0.063535 -1.614420 -0.664702
-0.063523 -1.633229 -0.664575
-0.059333 -1.645768 -0.620740
-0.059321 -1.658307 -0.620614
-0.055132 -1.670846 -0.576783
-0.055120 -1.683386 -0.576660
-0.055108 -1.695925 -0.576537
-0.050919 -1.708464 -0.532711
-0.046730 -1.721003 -0.488886
-0.046719 -1.733542 -0.488768
-0.042530 -1.746082 -0.444947
-0.042519 -1.764890 -0.444832
-0.042508 -1.777430 -0.444716
-0.046674 -1.789969 -0.488297
-0.050839 -1.802508 -0.531869
-0.055003 -1.815047 -0.575432
-0.059166 -1.827586 -0.618986
-0.063328 -1.840125 -0.662533
-0.067490 -1.852664 -0.706072
-0.079983 -1.877743 -0.836777
-0.079971 -1.896552 -0.836647
-0.079958 -1.909091 -0.836517
-0.069750 0.423198 -0.352829
-0.078296 0.410658 -0.396057
-0.069787 0.398119 -0.353018
-0.078334 0.385580 -0.396250
-0.078353 0.373041 -0.396346
-0.086899 0.360502 -0.439579
-0.095446 0.341693 -0.482812
-0.095466 0.329154 -0.482913
-0.104013 0.316614 -0.526147
-0.104033 0.304075 -0.526249
-0.104053 0.291536 -0.526351
-0.112601 0.278997 -0.569588
-0.112621 0.266458 -0.569692
-0.112642 0.253918 -0.569796
-0.112662 0.241379 -0.569900
-0.112683 0.228840 -0.570003
-0.112703 0.210031 -0.570106
-0.112723 0.197492 -0.570209
-0.112744 0.184953 -0.570311
-0.121293 0.172414 -0.613559
-0.121314 0.159875 -0.613663
-0.121334 0.147335 -0.613766
-0.121354 0.134796 -0.613869
-0.121375 0.122257 -0.613972
-0.121395 0.109718 -0.614073
-0.129945 0.097179 -0.657326
-0.138495 0.078370 -0.700576
-0.147045 0.065831 -0.743824
-0.155594 0.053292 -0.787069
-0.164142 0.040752 -0.830311
-0.181215 0.028213 -0.916674
-0.189761 0.015674 -0.959902
-0.189782 0.003135 -0.960012
-0.189804 -0.009404 -0.960120
-0.189825 -0.021944 -0.960228
-0.189846 -0.034483 -0.960333
-0.189867 -0.053292 -0.960439
-0.189887 -0.065831 -0.960542
-0.189907 -0.078370 -0.960644
-0.181401 -0.090909 -0.917613
-0.181420 -0.103448 -0.917711
-0.181439 -0.115987 -0.917807
-0.181458 -0.128527 -0.917902
-0.181476 -0.141066 -0.917995
-0.181494 -0.153605 -0.918086
-0.181512 -0.166144 -0.918176
-0.181530 -0.184953 -0.918264
-0.181547 -0.197492 -0.918351
-0.181563 -0.210031 -0.918435
-0.190109 -0.222571 -0.961664
-0.190125 -0.235110 -0.961746
-0.181611 -0.247649 -0.918677
-0.173094 -0.260188 -0.875595
-0.173109 -0.272727 -0.875668
-0.173123 -0.285266 -0.875739
-0.164602 -0.297806 -0.832639
-0.164615 -0.316614 -0.832704
-0.173162 -0.329154 -0.875939
-0.164640 -0.341693 -0.832829
-0.173187 -0.354232 -0.876061
-0.173198 -0.366771 -0.876119
-0.173209 -0.379310 -0.876174
-0.164684 -0.391850 -0.833051
-0.164694 -0.404389 -0.833100
-0.164703 -0.416928 -0.833147
-0.164712 -0.429467 -0.833191
-0.156182 -0.448276 -0.790046
-0.147651 -0.460815 -0.746889
-0.139117 -0.473354 -0.703721
-0.130581 -0.485893 -0.660541
-0.130587 -0.498433 -0.660570
-0.130592 -0.510972 -0.660598
-0.130597 -0.523511 -0.660622
-0.122057 -0.536050 -0.617423
-0.122061 -0.548589 -0.617443
-0.113518 -0.561128 -0.574230
-0.113521 -0.579937 -0.574245
-0.113524 -0.592476 -0.574258
-0.113526 -0.605016 -0.574268
-0.113527 -0.617555 -0.574276
-0.198872 -0.811912 -1.005993
-0.207393 -0.824451 -1.049095
-0.207385 -0.843260 -1.049052
-0.207375 -0.855799 -1.049006
-0.207366 -0.868339 -1.048956
-0.207355 -0.880878 -1.048904
-0.198817 -0.893417 -1.005712
-0.198806 -0.905956 -1.005656
-0.190265 -0.918495 -0.962453
-0.190253 -0.931034 -0.962392
-0.190240 -0.943574 -0.962328
-0.190227 -0.956113 -0.962261
-0.190214 -0.974922 -0.962193
-0.181670 -0.987461 -0.918977
-0.181656 -1.000000 -0.918904
-0.181641 -1.012539 -0.918829
-0.181626 -1.025078 -0.918751
-0.181610 -1.037617 -0.918671
-0.181594 -1.050157 -0.918588
-0.181577 -1.062696 -0.918504
-0.173031 -1.075235 -0.875276
-0.173014 -1.087774 -0.875188
-0.172996 -1.106583 -0.875099
-0.172978 -1.119122 -0.875006
-0.172959 -1.131661 -0.874912
-0.172940 -1.144201 -0.874816
-0.172921 -1.156740 -0.874718
-0.172901 -1.169279 -0.874617
-0.172881 -1.181818 -0.874515
-0.172860 -1.194357 -0.874410
-0.172839 -1.206897 -0.874305
-0.172818 -1.219436 -0.874197
-0.164271 -1.238245 -0.830964
-0.164250 -1.250784 -0.830855
-0.164228 -1.263323 -0.830744
-0.164206 -1.275862 -0.830632
-0.164183 -1.288401 -0.830518
-0.164160 -1.300941 -0.830403
-0.164137 -1.313480 -0.830286
-0.164114 -1.326019 -0.830167
-0.172611 -1.338558 -0.873151
-0.164066 -1.351097 -0.829927
-0.164042 -1.369906 -0.829804
-0.164018 -1.382445 -0.829681
-0.163993 -1.394984 -0.829556
-0.155448 -1.407523 -0.786333
-0.155424 -1.420063 -0.786208
-0.155399 -1.432602 -0.786084
-0.155374 -1.445141 -0.785957
-0.155349 -1.457680 -0.785830
-0.146805 -1.470219 -0.742612
-0.146780 -1.482759 -0.742486
-0.146755 -1.501567 -0.742359
-0.138212 -1.514107 -0.699144
-0.138187 -1.526646 -0.699018
-0.138162 -1.539185 -0.698892
-0.138137 -1.551724 -0.698765
-0.138112 -1.564263 -0.698638
-0.129571 -1.576802 -0.655431
-0.129546 -1.589342 -0.655306
-0.129521 -1.601881 -0.655180
-0.129496 -1.614420 -0.655054
-0.120956 -1.633229 -0.611854
-0.120932 -1.645768 -0.611730
-0.120907 -1.658307 -0.611607
-0.112368 -1.670846 -0.568411
-0.112344 -1.683386 -0.568290
-0.103805 -1.695925 -0.525098
-0.103782 -1.708464 -0.524979
-0.095244 -1.721003 -0.481790
-0.095221 -1.733542 -0.481674
-0.086684 -1.746082 -0.438489
-0.086661 -1.764890 -0.438375
-0.086639 -1.777430 -0.438262
-0.095129 -1.789969 -0.481210
-0.103618 -1.802508 -0.524149
-0.112105 -1.815047 -0.567080
-0.120590 -1.827586 -0.610002
-0.129074 -1.840125 -0.652917
-0.137556 -1.852664 -0.695824
-0.117425 0.398119 -0.386370
-0.117454 0.385580 -0.386464
-0.130268 0.373041 -0.428628
-0.143082 0.360502 -0.470791
-0.143112 0.341693 -0.470889
-0.155927 0.329154 -0.513054
-0.155957 0.316614 -0.513154
-0.155987 0.304075 -0.513253
-0.168803 0.291536 -0.555420
-0.168834 0.278997 -0.555522
-0.168864 0.266458 -0.555623
-0.168895 0.253918 -0.555725
-0.168926 0.241379 -0.555826
-0.168956 0.228840 -0.555926
-0.168987 0.210031 -0.556027
-0.181805 0.197492 -0.598203
-0.181836 0.184953 -0.598306
-0.181867 0.172414 -0.598407
-0.181898 0.159875 -0.598508
-0.181929 0.147335 -0.598609
-0.181959 0.134796 -0.598709
-0.207567 0.122257 -0.682968
-0.207598 0.109718 -0.683072
-0.220417 0.097179 -0.725249
-0.246019 0.078370 -0.809489
-0.246051 0.065831 -0.809595
-0.246083 0.053292 -0.809701
-0.258899 0.040752 -0.851870
-0.258931 0.028213 -0.851976
-0.271746 0.015674 -0.894142
-0.271779 0.003135 -0.894248
-0.271810 -0.009404 -0.894351
-0.271841 -0.021944 -0.894454
-0.271872 -0.034483 -0.894556
-0.271903 -0.053292 -0.894658
-0.271933 -0.065831 -0.894757
-0.271963 -0.078370 -0.894855
-0.271993 -0.090909 -0.894952
-0.272022 -0.103448 -0.895048
-0.272050 -0.115987 -0.895141
-0.272078 -0.128527 -0.895234
-0.272106 -0.141066 -0.895325
-0.272133 -0.153605 -0.895414
-0.272160 -0.166144 -0.895502
-0.272186 -0.184953 -0.895588
-0.272211 -0.197492 -0.895672
-0.259445 -0.210031 -0.853667
-0.233880 -0.222571 -0.769547
-0.233903 -0.235110 -0.769622
-0.221126 -0.247649 -0.727582
-0.208346 -0.260188 -0.685530
-0.221167 -0.272727 -0.727719
-0.221187 -0.285266 -0.727785
-0.221207 -0.297806 -0.727848
-0.221225 -0.316614 -0.727910
-0.234045 -0.329154 -0.770089
-0.246862 -0.341693 -0.812262
-0.246879 -0.354232 -0.812320
-0.259693 -0.366771 -0.854483
-0.259710 -0.379310 -0.854536
-0.259725 -0.391850 -0.854588
-0.259740 -0.404389 -0.854637
-0.259755 -0.416928 -0.854684
-0.246969 -0.429467 -0.812615
-0.234180 -0.448276 -0.770536
-0.221388 -0.460815 -0.728444
-0.208592 -0.473354 -0.686342
-0.195793 -0.485893 -0.644228
-0.195802 -0.498433 -0.644257
-0.195810 -0.510972 -0.644284
-0.183006 -0.523511 -0.602154
-0.183013 -0.536050 -0.602176
-0.183018 -0.548589 -0.602195
-0.170210 -0.561128 -0.560049
-0.170214 -0.579937 -0.560064
-0.170218 -0.592476 -0.560077
-0.170221 -0.605016 -0.560086
-0.170223 -0.617555 -0.560094
-0.170225 -0.630094 -0.560099
-0.170226 -0.642633 -0.560102
-0.170226 -0.655172 -0.560103
-0.170225 -0.667712 -0.560101
-0.170224 -0.680251 -0.560097
-0.183036 -0.692790 -0.602253
-0.183033 -0.711599 -0.602244
-0.183030 -0.724138 -0.602233
-0.272616 -0.799373 -0.897003
-0.272606 -0.811912 -0.896969
-0.272595 -0.824451 -0.896933
-0.272583 -0.843260 -0.896893
-0.285362 -0.855799 -0.938942
-0.272556 -0.868339 -0.896806
-0.272542 -0.880878 -0.896759
-0.272526 -0.893417 -0.896708
-0.272510 -0.905956 -0.896655
-0.272493 -0.918495 -0.896599
-0.272476 -0.931034 -0.896541
-0.272457 -0.943574 -0.896480
-0.272438 -0.956113 -0.896417
-0.272418 -0.974922 -0.896351
-0.272397 -0.987461 -0.896283
-0.272375 -1.000000 -0.896212
-0.272353 -1.012539 -0.896138
-0.272330 -1.025078 -0.896062
-0.259517 -1.037617 -0.853904
-0.272282 -1.050157 -0.895903
-0.259469 -1.062696 -0.853744
-0.259444 -1.075235 -0.853661
-0.259417 -1.087774 -0.853575
-0.259391 -1.106583 -0.853488
-0.259364 -1.119122 -0.853398
-0.259336 -1.131661 -0.853306
-0.259307 -1.144201 -0.853212
-0.259278 -1.156740 -0.853117
-0.259248 -1.169279 -0.853019
-0.259218 -1.181818 -0.852919
-0.259187 -1.194357 -0.852817
-0.259156 -1.206897 -0.852714
-0.259124 -1.219436 -0.852608
-0.259091 -1.238245 -0.852502
-0.259058 -1.250784 -0.852392
-0.246244 -1.263323 -0.810229
-0.246210 -1.275862 -0.810120
-0.246177 -1.288401 -0.810009
-0.246143 -1.300941 -0.809896
-0.246108 -1.313480 -0.809782
-0.246073 -1.326019 -0.809666
-0.233259 -1.338558 -0.767503
-0.233224 -1.351097 -0.767388
-0.233188 -1.369906 -0.767271
-0.233152 -1.382445 -0.767153
-0.233116 -1.394984 -0.767034
-0.233080 -1.407523 -0.766914
-0.220267 -1.420063 -0.724756
-0.233006 -1.432602 -0.766671
-0.220194 -1.445141 -0.724516
-0.220157 -1.457680 -0.724395
-0.220120 -1.470219 -0.724273
-0.220083 -1.482759 -0.724150
-0.220045 -1.501567 -0.724027
-0.207236 -1.514107 -0.681878
-0.207198 -1.526646 -0.681756
-0.207161 -1.539185 -0.681632
-0.207123 -1.551724 -0.681509
-0.194315 -1.564263 -0.639367
-0.194278 -1.576802 -0.639245
-0.194241 -1.589342 -0.639123
-0.194204 -1.601881 -0.639000
-0.181398 -1.614420 -0.596864
-0.181362 -1.633229 -0.596744
-0.181325 -1.645768 -0.596624
-0.168521 -1.658307 -0.554492
-0.168485 -1.670846 -0.554374
-0.168449 -1.683386 -0.554256
-0.155646 -1.695925 -0.512130
-0.155611 -1.708464 -0.512014
-0.142809 -1.721003 -0.469892
-0.142775 -1.733542 -0.469779
-0.129974 -1.746082 -0.427661
-0.129940 -1.764890 -0.427550
-0.129907 -1.777430 -0.427439
-0.142637 -1.789969 -0.469326
-0.142603 -1.802508 -0.469213
-0.168090 -1.815047 -0.553076
-0.180813 -1.827586 -0.594938
-0.193533 -1.840125 -0.636793
-0.206252 -1.852664 -0.678641
-0.155365 0.398119 -0.372736
-0.155403 0.385580 -0.372827
-0.172357 0.373041 -0.413503
-0.172396 0.360502 -0.413595
-0.189351 0.341693 -0.454273
-0.189391 0.329154 -0.454367
-0.206347 0.316614 -0.495046
-0.206387 0.304075 -0.495142
-0.223343 0.291536 -0.535821
-0.223384 0.278997 -0.535919
-0.223424 0.266458 -0.536017
-0.223465 0.253918 -0.536115
-0.223506 0.241379 -0.536212
-0.223546 0.228840 -0.536309
-0.223587 0.210031 -0.536406
-0.223627 0.197492 -0.536503
-0.223667 0.184953 -0.536600
-0.223707 0.172414 -0.536696
-0.223747 0.159875 -0.536792
-0.223787 0.147335 -0.536887
-0.240750 0.134796 -0.577583
-0.240790 0.122257 -0.577679
-0.257753 0.109718 -0.618374
-0.274714 0.097179 -0.659067
-0.308592 0.078370 -0.740343
-0.325550 0.065831 -0.781027
-0.325593 0.053292 -0.781129
-0.325635 0.040752 -0.781230
-0.325677 0.028213 -0.781330
-0.325718 0.015674 -0.781429
-0.325759 0.003135 -0.781528
-0.325800 -0.009404 -0.781625
-0.342758 -0.021944 -0.822310
-0.342798 -0.034483 -0.822406
-0.359755 -0.053292 -0.863088
-0.359795 -0.065831 -0.863183
-0.359834 -0.078370 -0.863278
-0.359873 -0.090909 -0.863372
-0.359912 -0.103448 -0.863464
-0.359949 -0.115987 -0.863554
-0.359987 -0.128527 -0.863644
-0.360023 -0.141066 -0.863731
-0.360059 -0.153605 -0.863817
-0.360094 -0.166144 -0.863902
-0.360129 -0.184953 -0.863985
-0.360163 -0.197492 -0.864066
-0.360196 -0.210031 -0.864145
-0.343304 -0.222571 -0.823620
-0.343335 -0.235110 -0.823694
-0.326437 -0.247649 -0.783154
-0.309534 -0.260188 -0.742602
-0.292626 -0.272727 -0.702039
-0.292653 -0.285266 -0.702103
-0.309615 -0.297806 -0.742796
-0.309640 -0.316614 -0.742856
-0.309664 -0.329154 -0.742915
-0.309688 -0.341693 -0.742971
-0.309711 -0.354232 -0.743026
-0.326668 -0.366771 -0.783708
-0.326689 -0.379310 -0.783759
-0.326709 -0.391850 -0.783808
-0.309792 -0.404389 -0.743222
-0.275928 -0.416928 -0.661977
-0.275944 -0.429467 -0.662017
-0.275960 -0.448276 -0.662055
-0.275974 -0.460815 -0.662090
-0.259041 -0.473354 -0.621465
-0.242103 -0.485893 -0.580830
-0.242115 -0.498433 -0.580858
-0.242125 -0.510972 -0.580883
-0.242135 -0.523511 -0.580905
-0.242144 -0.536050 -0.580927
-0.225198 -0.548589 -0.540271
-0.225204 -0.561128 -0.540287
-0.225210 -0.579937 -0.540301
-0.225215 -0.592476 -0.540313
-0.225219 -0.605016 -0.540322
-0.225222 -0.617555 -0.540330
-0.225224 -0.630094 -0.540335
-0.225225 -0.642633 -0.540338
-0.225226 -0.655172 -0.540338
-0.225225 -0.667712 -0.540337
-0.225223 -0.680251 -0.540333
-0.242175 -0.692790 -0.581001
-0.242171 -0.711599 -0.580993
-0.242167 -0.724138 -0.580982
-0.242161 -0.736677 -0.580968
-0.242155 -0.749216 -0.580953
-0.242147 -0.761755 -0.580935
-0.259088 -0.774295 -0.621579
-0.259079 -0.786834 -0.621556
-0.276014 -0.799373 -0.662186
-0.326821 -0.811912 -0.784077
-0.343740 -0.824451 -0.824667
-0.360654 -0.843260 -0.865244
-0.377562 -0.855799 -0.905810
-0.377544 -0.868339 -0.905765
-0.360600 -0.880878 -0.865114
-0.360579 -0.893417 -0.865065
-0.360558 -0.905956 -0.865014
-0.360536 -0.918495 -0.864961
-0.360512 -0.931034 -0.864905
-0.360488 -0.943574 -0.864846
-0.360462 -0.956113 -0.864785
-0.360436 -0.974922 -0.864721
-0.360408 -0.987461 -0.864655
-0.360380 -1.000000 -0.864587
-0.360350 -1.012539 -0.864516
-0.360320 -1.025078 -0.864442
-0.360288 -1.037617 -0.864367
-0.360256 -1.050157 -0.864289
-0.343303 -1.062696 -0.823618
-0.343269 -1.075235 -0.823537
-0.343235 -1.087774 -0.823455
-0.343200 -1.106583 -0.823371
-0.343164 -1.119122 -0.823283
-0.343127 -1.131661 -0.823195
-0.343089 -1.144201 -0.823104
-0.343051 -1.156740 -0.823012
-0.343011 -1.169279 -0.822918
-0.326055 -1.181818 -0.782239
-0.326016 -1.194357 -0.782143
-0.325975 -1.206897 -0.782046
-0.325933 -1.219436 -0.781946
-0.325891 -1.238245 -0.781845
-0.325848 -1.250784 -0.781742
-0.325805 -1.263323 -0.781638
-0.325761 -1.275862 -0.781532
-0.325716 -1.288401 -0.781426
-0.308761 -1.300941 -0.740748
-0.308716 -1.313480 -0.740640
-0.308671 -1.326019 -0.740531
-0.308624 -1.338558 -0.740420
-0.308578 -1.351097 -0.740309
-0.308531 -1.369906 -0.740196
-0.308484 -1.382445 -0.740083
-0.308436 -1.394984 -0.739968
-0.291483 -1.407523 -0.699296
-0.291435 -1.420063 -0.699182
-0.291387 -1.432602 -0.699066
-0.291338 -1.445141 -0.698950
-0.291290 -1.457680 -0.698833
-0.291241 -1.470219 -0.698715
-0.291191 -1.482759 -0.698596
-0.274242 -1.501567 -0.657933
-0.274193 -1.514107 -0.657816
-0.274144 -1.526646 -0.657698
-0.274094 -1.539185 -0.657579
-0.257147 -1.551724 -0.616922
-0.257099 -1.564263 -0.616805
-0.257050 -1.576802 -0.616687
-0.257001 -1.589342 -0.616570
-0.240056 -1.601881 -0.575918
-0.240008 -1.614420 -0.575802
-0.239960 -1.633229 -0.575687
-0.239911 -1.645768 -0.575570
-0.222969 -1.658307 -0.534926
-0.222922 -1.670846 -0.534812
-0.205982 -1.683386 -0.494170
-0.205935 -1.695925 -0.494059
-0.188996 -1.708464 -0.453421
-0.188951 -1.721003 -0.453311
-0.172013 -1.733542 -0.412676
-0.171969 -1.746082 -0.412570
-0.171924 -1.764890 -0.412463
-0.171879 -1.777430 -0.412355
-0.188723 -1.789969 -0.452765
-0.188678 -1.802508 -0.452656
-0.222400 -1.815047 -0.533559
-0.239233 -1.827586 -0.573944
-0.239186 -1.840125 -0.573830
-0.180844 0.385580 -0.034056
-0.180931 0.373041 -0.034073
-0.224250 0.360502 -0.042231
-0.224338 0.341693 -0.042247
-0.267658 0.329154 -0.050405
-0.267749 0.316614 -0.050422
-0.311071 0.304075 -0.058581
-0.311164 0.291536 -0.058598
-0.311256 0.278997 -0.058616
-0.311348 0.266458 -0.058633
-0.311440 0.253918 -0.058650
-0.354770 0.241379 -0.066810
-0.398099 0.228840 -0.074970
-0.441428 0.210031 -0.083129
-0.441525 0.197492 -0.083148
-0.441622 0.184953 -0.083166
-0.441718 0.172414 -0.083184
-0.441813 0.159875 -0.083202
-0.441909 0.147335 -0.083220
-0.442003 0.134796 -0.083238
-0.442097 0.122257 -0.083255
-0.442191 0.109718 -0.083273
-0.442283 0.097179 -0.083290
-0.442375 0.078370 -0.083308
-0.442466 0.065831 -0.083325
-0.442557 0.053292 -0.083342
-0.485904 0.040752 -0.091505
-0.485995 0.028213 -0.091522
-0.486084 0.015674 -0.091539
-0.486174 0.003135 -0.091556
-0.486262 -0.009404 -0.091573
-0.486349 -0.021944 -0.091589
-0.529700 -0.034483 -0.099753
-0.529787 -0.053292 -0.099769
-0.529872 -0.065831 -0.099785
-0.529957 -0.078370 -0.099801
-0.573308 -0.090909 -0.107965
-0.573391 -0.103448 -0.107981
-0.530204 -0.115987 -0.099848
-0.530282 -0.128527 -0.099862
-0.530361 -0.141066 -0.099877
-0.530437 -0.153605 -0.099892
-0.530512 -0.166144 -0.099906
-0.530586 -0.184953 -0.099920
-0.573940 -0.197492 -0.108084
-0.574012 -0.210031 -0.108098
-0.530797 -0.222571 -0.099959
-0.530864 -0.235110 -0.099972
-0.530929 -0.247649 -0.099984
-0.530993 -0.260188 -0.099996
-0.531055 -0.272727 -0.100008
-0.531116 -0.285266 -0.100019
-0.574469 -0.297806 -0.108184
-0.574527 -0.316614 -0.108194
-0.574583 -0.329154 -0.108205
-0.574637 -0.341693 -0.108215
-0.574689 -0.354232 -0.108225
-0.574739 -0.366771 -0.108234
-0.618083 -0.379310 -0.116397
-0.618130 -0.391850 -0.116406
-0.618175 -0.404389 -0.116414
-0.618217 -0.416928 -0.116422
-0.618258 -0.429467 -0.116430
-0.574996 -0.448276 -0.108283
-0.575031 -0.460815 -0.108289
-0.575064 -0.473354 -0.108296
-0.575095 -0.485893 -0.108301
-0.575123 -0.498433 -0.108307
-0.834911 -0.536050 -0.157230
-0.834933 -0.548589 -0.157234
-0.878210 -0.561128 -0.165384
-0.878227 -0.579937 -0.165387
-0.878241 -0.592476 -0.165390
-0.878251 -0.605016 -0.165392
-0.878259 -0.617555 -0.165393
-0.921515 -0.630094 -0.173539
-0.921517 -0.642633 -0.173540
-0.921517 -0.655172 -0.173539
-0.921513 -0.667712 -0.173539
-0.964748 -0.680251 -0.181681
-0.964739 -0.692790 -0.181679
-0.964726 -0.711599 -0.181677
-0.964711 -0.724138 -0.181674
-0.964693 -0.736677 -0.181670
-0.964671 -0.749216 -0.181666
-0.964647 -0.761755 -0.181662
-0.964620 -0.774295 -0.181657
-0.964590 -0.786834 -0.181651
-0.921321 -0.799373 -0.173502
-0.964521 -0.811912 -0.181638
-0.921248 -0.824451 -0.173489
-0.921207 -0.843260 -0.173481
-0.921164 -0.855799 -0.173473
-0.921117 -0.868339 -0.173464
-0.877830 -0.880878 -0.165312
-0.877779 -0.893417 -0.165303
-0.877726 -0.905956 -0.165293
-0.877671 -0.918495 -0.165282
-0.877612 -0.931034 -0.165271
-0.877551 -0.943574 -0.165260
-0.877487 -0.956113 -0.165248
-0.877421 -0.974922 -0.165235
-0.877352 -0.987461 -0.165222
-0.877281 -1.000000 -0.165209
-0.877207 -1.012539 -0.165195
-0.877131 -1.025078 -0.165181
-0.877053 -1.037617 -0.165166
-0.876972 -1.050157 -0.165151
-0.876888 -1.062696 -0.165135
-0.876803 -1.075235 -0.165119
-0.876715 -1.087774 -0.165102
-0.876626 -1.106583 -0.165086
-0.876533 -1.119122 -0.165068
-0.876439 -1.131661 -0.165050
-0.876342 -1.144201 -0.165032
-0.876244 -1.156740 -0.165014
-0.876143 -1.169279 -0.164995
-0.876041 -1.181818 -0.164975
-0.875936 -1.194357 -0.164956
-0.875830 -1.206897 -0.164936
-0.875722 -1.219436 -0.164915
-0.875612 -1.238245 -0.164895
-0.875500 -1.250784 -0.164874
-0.875387 -1.263323 -0.164852
-0.832081 -1.275862 -0.156697
-0.831967 -1.288401 -0.156676
-0.831851 -1.300941 -0.156654
-0.831734 -1.313480 -0.156632
-0.788428 -1.326019 -0.148476
-0.788310 -1.338558 -0.148454
-0.788191 -1.351097 -0.148432
-0.788071 -1.369906 -0.148409
-0.787950 -1.382445 -0.148386
-0.744647 -1.394984 -0.140231
-0.744525 -1.407523 -0.140209
-0.744404 -1.420063 -0.140186
-0.744281 -1.432602 -0.140162
-0.744157 -1.445141 -0.140139
-0.744033 -1.457680 -0.140116
-0.700736 -1.470219 -0.131962
-0.700612 -1.482759 -0.131939
-0.700488 -1.501567 -0.131915
-0.700363 -1.514107 -0.131892
-0.700237 -1.526646 -0.131868
-0.656948 -1.539185 -0.123716
-0.656824 -1.551724 -0.123693
-0.656699 -1.564263 -0.123669
-0.656574 -1.576802 -0.123646
-0.613291 -1.589342 -0.115495
-0.613168 -1.601881 -0.115471
-0.613045 -1.614420 -0.115448
-0.569767 -1.633229 -0.107298
-0.569645 -1.645768 -0.107275
-0.569524 -1.658307 -0.107252
-0.526252 -1.670846 -0.099103
-0.526132 -1.683386 -0.099081
-0.482863 -1.695925 -0.090932
-0.482747 -1.708464 -0.090911
-0.439481 -1.721003 -0.082763
-0.396217 -1.733542 -0.074615
-0.396105 -1.746082 -0.074594
