-0.315921 -0.059561 -0.667142
-0.315921 -0.072100 -0.667142
-0.315921 -0.084640 -0.667142
-0.315921 -0.097179 -0.667142
-0.315921 -0.109718 -0.667142
-0.315921 -0.122257 -0.667142
-0.315921 -0.134796 -0.667142
-0.315921 -0.147335 -0.667142
-0.315921 -0.159875 -0.667142
-0.315921 -0.172414 -0.667142
-0.302374 -0.184953 -0.638535
-0.288828 -0.197492 -0.609928
-0.275281 -0.210031 -0.581321
-0.275281 -0.222571 -0.581321
-0.261734 -0.235110 -0.552714
-0.275281 -0.247649 -0.581321
-0.275281 -0.253919 -0.581321
-0.275281 -0.266458 -0.581321
-0.275281 -0.278997 -0.581321
-0.275281 -0.291536 -0.581321
-0.275281 -0.304075 -0.581321
-0.261734 -0.316614 -0.552714
-0.261734 -0.329154 -0.552714
-0.261734 -0.341693 -0.552714
-0.261734 -0.354232 -0.552714
-0.248187 -0.366771 -0.524107
-0.234641 -0.379310 -0.495499
-0.221094 -0.391850 -0.466892
-0.221094 -0.404389 -0.466892
-0.221094 -0.416928 -0.466892
-0.221094 -0.429467 -0.466892
-0.221094 -0.442006 -0.466892
-0.207547 -0.454545 -0.438285
-0.207547 -0.467085 -0.438285
-0.207547 -0.479624 -0.438285
-0.207547 -0.492163 -0.438285
-0.194000 -0.504702 -0.409678
-0.194000 -0.517241 -0.409678
-0.194000 -0.529781 -0.409678
-0.194000 -0.542320 -0.409678
-0.194000 -0.554859 -0.409678
-0.194000 -0.567398 -0.409678
-0.207547 -0.579937 -0.438285
-0.207547 -0.592476 -0.438285
-0.207547 -0.605016 -0.438285
-0.207547 -0.617555 -0.438285
-0.207547 -0.630094 -0.438285
-0.207547 -0.642633 -0.438285
-0.207547 -0.655172 -0.438285
-0.221094 -0.667712 -0.466892
-0.221094 -0.680251 -0.466892
-0.221094 -0.692790 -0.466892
-0.234641 -0.705329 -0.495499
-0.248187 -0.717868 -0.524107
-0.302374 -0.730407 -0.638535
-0.302374 -0.742947 -0.638535
-0.329468 -0.755486 -0.695750
-0.329468 -0.768025 -0.695750
-0.329468 -0.780564 -0.695750
-0.315921 -0.793103 -0.667142
-0.315921 -0.805643 -0.667142
-0.315921 -0.818182 -0.667142
-0.315921 -0.830721 -0.667142
-0.315921 -0.843260 -0.667142
-0.315921 -0.855799 -0.667142
-0.315921 -0.868339 -0.667142
-0.329468 -0.880878 -0.695750
-0.329468 -0.893417 -0.695750
-0.315921 -0.905956 -0.667142
-0.315921 -0.918495 -0.667142
-0.315921 -0.931034 -0.667142
-0.315921 -0.943574 -0.667142
-0.315921 -0.956113 -0.667142
-0.315921 -0.968652 -0.667142
-0.315921 -0.981191 -0.667142
-0.302374 -0.993730 -0.638535
-0.302374 -1.006270 -0.638535
-0.302374 -1.018809 -0.638535
-0.302374 -1.031348 -0.638535
-0.302374 -1.043887 -0.638535
-0.302374 -1.056426 -0.638535
-0.302374 -1.068965 -0.638535
-0.302374 -1.081505 -0.638535
-0.302374 -1.094044 -0.638535
-0.302374 -1.106583 -0.638535
-0.302374 -1.119122 -0.638535
-0.288828 -1.131661 -0.609928
-0.288828 -1.144201 -0.609928
-0.288828 -1.156740 -0.609928
-0.288828 -1.169279 -0.609928
-0.288828 -1.181818 -0.609928
-0.288828 -1.194357 -0.609928
-0.275281 -1.206897 -0.581321
-0.275281 -1.219436 -0.581321
-0.275281 -1.231975 -0.581321
-0.288828 -1.244514 -0.609928
-0.275281 -1.257053 -0.581321
-0.275281 -1.269593 -0.581321
-0.275281 -1.282132 -0.581321
-0.275281 -1.294671 -0.581321
-0.261734 -1.307210 -0.552714
-0.261734 -1.319749 -0.552714
-0.261734 -1.332289 -0.552714
-0.261734 -1.344828 -0.552714
-0.261734 -1.357367 -0.552714
-0.248187 -1.369906 -0.524107
-0.248187 -1.382445 -0.524107
-0.248187 -1.394984 -0.524107
-0.234641 -1.407523 -0.495499
-0.234641 -1.420063 -0.495499
-0.234641 -1.432602 -0.495499
-0.234641 -1.445141 -0.495499
-0.234641 -1.457680 -0.495499
-0.221094 -1.470219 -0.466892
-0.221094 -1.482759 -0.466892
-0.221094 -1.495298 -0.466892
-0.221094 -1.501567 -0.466892
-0.207547 -1.514107 -0.438285
-0.207547 -1.526646 -0.438285
-0.207547 -1.539185 -0.438285
-0.194000 -1.551724 -0.409678
-0.194000 -1.564263 -0.409678
-0.194000 -1.576802 -0.409678
-0.180454 -1.589342 -0.381070
-0.166907 -1.601881 -0.352463
-0.166907 -1.614420 -0.352463
-0.153360 -1.626959 -0.323856
-0.153360 -1.639498 -0.323856
-0.153360 -1.652038 -0.323856
-0.166907 -1.664577 -0.352463
-0.180454 -1.677116 -0.381070
-0.248187 -1.714734 -0.524107
-0.139413 0.429467 -0.260009
-0.139413 0.416928 -0.260009
-0.154371 0.404389 -0.287905
-0.169328 0.391850 -0.315801
-0.169328 0.379310 -0.315801
-0.184285 0.366771 -0.343696
-0.184285 0.354232 -0.343696
-0.199242 0.341693 -0.371592
-0.214200 0.329154 -0.399488
-0.214200 0.316614 -0.399488
-0.214200 0.304075 -0.399488
-0.214200 0.291536 -0.399488
-0.214200 0.278997 -0.399488
-0.214200 0.266458 -0.399488
-0.214200 0.253918 -0.399488
-0.214200 0.241379 -0.399488
-0.214200 0.228840 -0.399488
-0.214200 0.216301 -0.399488
-0.199242 0.203762 -0.371592
-0.199242 0.191223 -0.371592
-0.184285 0.178683 -0.343696
-0.184285 0.166144 -0.343696
-0.214200 0.153605 -0.399488
-0.244114 0.141066 -0.455279
-0.259071 0.128527 -0.483175
-0.274029 0.115987 -0.511070
-0.288986 0.103448 -0.538966
-0.303943 0.090909 -0.566862
-0.303943 0.078370 -0.566862
-0.303943 0.065831 -0.566862
-0.318900 0.053292 -0.594757
-0.318900 0.040752 -0.594757
-0.333858 0.028213 -0.622653
-0.333858 0.015674 -0.622653
-0.333858 0.003135 -0.622653
-0.333858 -0.009404 -0.622653
-0.348815 -0.021944 -0.650548
-0.348815 -0.034483 -0.650548
-0.348815 -0.047022 -0.650548
-0.348815 -0.059561 -0.650548
-0.348815 -0.072100 -0.650548
-0.348815 -0.084640 -0.650548
-0.348815 -0.097179 -0.650548
-0.348815 -0.109718 -0.650548
-0.348815 -0.122257 -0.650548
-0.348815 -0.134796 -0.650548
-0.348815 -0.147335 -0.650548
-0.333858 -0.159875 -0.622653
-0.333858 -0.172414 -0.622653
-0.333858 -0.184953 -0.622653
-0.333858 -0.197492 -0.622653
-0.318900 -0.210031 -0.594757
-0.303943 -0.222571 -0.566862
-0.303943 -0.235110 -0.566862
-0.288986 -0.247649 -0.538966
-0.288986 -0.253919 -0.538966
-0.288986 -0.266458 -0.538966
-0.288986 -0.278997 -0.538966
-0.288986 -0.291536 -0.538966
-0.288986 -0.304075 -0.538966
-0.274029 -0.316614 -0.511070
-0.274029 -0.329154 -0.511070
-0.274029 -0.341693 -0.511070
-0.274029 -0.354232 -0.511070
-0.259071 -0.366771 -0.483175
-0.259071 -0.379310 -0.483175
-0.244114 -0.391850 -0.455279
-0.244114 -0.404389 -0.455279
-0.244114 -0.416928 -0.455279
-0.229157 -0.429467 -0.427383
-0.229157 -0.442006 -0.427383
-0.229157 -0.454545 -0.427383
-0.229157 -0.467085 -0.427383
-0.229157 -0.479624 -0.427383
-0.229157 -0.492163 -0.427383
-0.229157 -0.504702 -0.427383
-0.229157 -0.517241 -0.427383
-0.229157 -0.529781 -0.427383
-0.229157 -0.542320 -0.427383
-0.229157 -0.554859 -0.427383
-0.214200 -0.567398 -0.399488
-0.214200 -0.579937 -0.399488
-0.214200 -0.592476 -0.399488
-0.214200 -0.605016 -0.399488
-0.229157 -0.617555 -0.427383
-0.229157 -0.630094 -0.427383
-0.229157 -0.642633 -0.427383
-0.229157 -0.655172 -0.427383
-0.229157 -0.667712 -0.427383
-0.229157 -0.680251 -0.427383
-0.244114 -0.692790 -0.455279
-0.244114 -0.705329 -0.455279
-0.274029 -0.717868 -0.511070
-0.333858 -0.730407 -0.622653
-0.348815 -0.742947 -0.650548
-0.363772 -0.755486 -0.678444
-0.363772 -0.768025 -0.678444
-0.363772 -0.780564 -0.678444
-0.363772 -0.793103 -0.678444
-0.363772 -0.805643 -0.678444
-0.363772 -0.818182 -0.678444
-0.348815 -0.830721 -0.650548
-0.348815 -0.843260 -0.650548
-0.348815 -0.855799 -0.650548
-0.348815 -0.868339 -0.650548
-0.348815 -0.880878 -0.650548
-0.348815 -0.893417 -0.650548
-0.348815 -0.905956 -0.650548
-0.348815 -0.918495 -0.650548
-0.348815 -0.931034 -0.650548
-0.348815 -0.943574 -0.650548
-0.348815 -0.956113 -0.650548
-0.348815 -0.968652 -0.650548
-0.348815 -0.981191 -0.650548
-0.348815 -0.993730 -0.650548
-0.348815 -1.006270 -0.650548
-0.348815 -1.018809 -0.650548
-0.333858 -1.031348 -0.622653
-0.333858 -1.043887 -0.622653
-0.333858 -1.056426 -0.622653
-0.333858 -1.068965 -0.622653
-0.333858 -1.081505 -0.622653
-0.318900 -1.094044 -0.594757
-0.318900 -1.106583 -0.594757
-0.318900 -1.119122 -0.594757
-0.318900 -1.131661 -0.594757
-0.318900 -1.144201 -0.594757
-0.318900 -1.156740 -0.594757
-0.318900 -1.169279 -0.594757
-0.318900 -1.181818 -0.594757
-0.318900 -1.194357 -0.594757
-0.318900 -1.206897 -0.594757
-0.303943 -1.219436 -0.566862
-0.303943 -1.231975 -0.566862
-0.303943 -1.244514 -0.566862
-0.303943 -1.257053 -0.566862
-0.303943 -1.269593 -0.566862
-0.303943 -1.282132 -0.566862
-0.303943 -1.294671 -0.566862
-0.288986 -1.307210 -0.538966
-0.288986 -1.319749 -0.538966
-0.288986 -1.332289 -0.538966
-0.288986 -1.344828 -0.538966
-0.288986 -1.357367 -0.538966
-0.288986 -1.369906 -0.538966
-0.274029 -1.382445 -0.511070
-0.274029 -1.394984 -0.511070
-0.274029 -1.407523 -0.511070
-0.274029 -1.420063 -0.511070
-0.259071 -1.432602 -0.483175
-0.259071 -1.445141 -0.483175
-0.259071 -1.457680 -0.483175
-0.259071 -1.470219 -0.483175
-0.259071 -1.482759 -0.483175
-0.244114 -1.495298 -0.455279
-0.244114 -1.501567 -0.455279
-0.244114 -1.514107 -0.455279
-0.229157 -1.526646 -0.427383
-0.229157 -1.539185 -0.427383
-0.229157 -1.551724 -0.427383
-0.214200 -1.564263 -0.399488
-0.199242 -1.576802 -0.371592
-0.199242 -1.589342 -0.371592
-0.184285 -1.601881 -0.343696
-0.184285 -1.614420 -0.343696
-0.184285 -1.626959 -0.343696
-0.274029 -1.714734 -0.511070
-0.274029 -1.727273 -0.511070
-0.154573 0.429467 -0.251293
-0.154573 0.416928 -0.251293
-0.154573 0.404389 -0.251293
-0.171156 0.391850 -0.278254
-0.187740 0.379310 -0.305214
-0.187740 0.366771 -0.305214
-0.204323 0.354232 -0.332175
-0.204323 0.341693 -0.332175
-0.220907 0.329154 -0.359135
-0.220907 0.316614 -0.359135
-0.220907 0.304075 -0.359135
-0.237491 0.291536 -0.386096
-0.237491 0.278997 -0.386096
-0.237491 0.266458 -0.386096
-0.237491 0.253918 -0.386096
-0.237491 0.241379 -0.386096
-0.237491 0.228840 -0.386096
-0.220907 0.216301 -0.359135
-0.204323 0.203762 -0.332175
-0.204323 0.191223 -0.332175
-0.204323 0.178683 -0.332175
-0.220907 0.166144 -0.359135
-0.204323 0.153605 -0.332175
-0.320409 0.090909 -0.520899
-0.320409 0.078370 -0.520899
-0.320409 0.065831 -0.520899
-0.336993 0.053292 -0.547859
-0.336993 0.040752 -0.547859
-0.353576 0.028213 -0.574820
-0.353576 0.015674 -0.574820
-0.353576 0.003135 -0.574820
-0.370160 -0.009404 -0.601780
-0.370160 -0.021944 -0.601780
-0.370160 -0.034483 -0.601780
-0.386743 -0.047022 -0.628740
-0.386743 -0.059561 -0.628740
-0.386743 -0.072100 -0.628740
-0.386743 -0.084640 -0.628740
-0.386743 -0.097179 -0.628740
-0.386743 -0.109718 -0.628740
-0.386743 -0.122257 -0.628740
-0.370160 -0.134796 -0.601780
-0.370160 -0.147335 -0.601780
-0.370160 -0.159875 -0.601780
-0.370160 -0.172414 -0.601780
-0.370160 -0.184953 -0.601780
-0.370160 -0.197492 -0.601780
-0.353576 -0.210031 -0.574820
-0.353576 -0.222571 -0.574820
-0.336993 -0.235110 -0.547859
-0.336993 -0.247649 -0.547859
-0.320409 -0.253919 -0.520899
-0.320409 -0.266458 -0.520899
-0.303825 -0.278997 -0.493938
-0.303825 -0.291536 -0.493938
-0.303825 -0.304075 -0.493938
-0.303825 -0.316614 -0.493938
-0.303825 -0.329154 -0.493938
-0.287242 -0.341693 -0.466977
-0.287242 -0.354232 -0.466977
-0.270658 -0.366771 -0.440017
-0.270658 -0.379310 -0.440017
-0.270658 -0.391850 -0.440017
-0.270658 -0.404389 -0.440017
-0.254074 -0.416928 -0.413056
-0.254074 -0.429467 -0.413056
-0.254074 -0.442006 -0.413056
-0.254074 -0.454545 -0.413056
-0.237491 -0.467085 -0.386096
-0.237491 -0.479624 -0.386096
-0.237491 -0.492163 -0.386096
-0.237491 -0.504702 -0.386096
-0.237491 -0.517241 -0.386096
-0.237491 -0.529781 -0.386096
-0.237491 -0.542320 -0.386096
-0.237491 -0.554859 -0.386096
-0.237491 -0.567398 -0.386096
-0.237491 -0.579937 -0.386096
-0.237491 -0.592476 -0.386096
-0.237491 -0.605016 -0.386096
-0.237491 -0.617555 -0.386096
-0.254074 -0.630094 -0.413056
-0.254074 -0.642633 -0.413056
-0.254074 -0.655172 -0.413056
-0.254074 -0.667712 -0.413056
-0.270658 -0.680251 -0.440017
-0.270658 -0.692790 -0.440017
-0.270658 -0.705329 -0.440017
-0.287242 -0.717868 -0.466977
-0.370160 -0.730407 -0.601780
-0.403327 -0.742947 -0.655701
-0.403327 -0.755486 -0.655701
-0.403327 -0.768025 -0.655701
-0.403327 -0.780564 -0.655701
-0.403327 -0.793103 -0.655701
-0.403327 -0.805643 -0.655701
-0.403327 -0.818182 -0.655701
-0.403327 -0.830721 -0.655701
-0.403327 -0.843260 -0.655701
-0.403327 -0.855799 -0.655701
-0.403327 -0.868339 -0.655701
-0.403327 -0.880878 -0.655701
-0.386743 -0.893417 -0.628740
-0.386743 -0.905956 -0.628740
-0.386743 -0.918495 -0.628740
-0.386743 -0.931034 -0.628740
-0.386743 -0.943574 -0.628740
-0.386743 -0.956113 -0.628740
-0.386743 -0.968652 -0.628740
-0.386743 -0.981191 -0.628740
-0.386743 -0.993730 -0.628740
-0.370160 -1.006270 -0.601780
-0.370160 -1.018809 -0.601780
-0.370160 -1.031348 -0.601780
-0.370160 -1.043887 -0.601780
-0.370160 -1.056426 -0.601780
-0.370160 -1.068965 -0.601780
-0.370160 -1.081505 -0.601780
-0.370160 -1.094044 -0.601780
-0.370160 -1.106583 -0.601780
-0.370160 -1.119122 -0.601780
-0.353576 -1.131661 -0.574820
-0.353576 -1.144201 -0.574820
-0.353576 -1.156740 -0.574820
-0.353576 -1.169279 -0.574820
-0.353576 -1.181818 -0.574820
-0.336993 -1.194357 -0.547859
-0.336993 -1.206897 -0.547859
-0.336993 -1.219436 -0.547859
-0.336993 -1.231975 -0.547859
-0.336993 -1.244514 -0.547859
-0.336993 -1.257053 -0.547859
-0.336993 -1.269593 -0.547859
-0.336993 -1.282132 -0.547859
-0.336993 -1.294671 -0.547859
-0.336993 -1.307210 -0.547859
-0.336993 -1.319749 -0.547859
-0.320409 -1.332289 -0.520899
-0.320409 -1.344828 -0.520899
-0.320409 -1.357367 -0.520899
-0.320409 -1.369906 -0.520899
-0.320409 -1.382445 -0.520899
-0.303825 -1.394984 -0.493938
-0.303825 -1.407523 -0.493938
-0.303825 -1.420063 -0.493938
-0.303825 -1.432602 -0.493938
-0.287242 -1.445141 -0.466977
-0.287242 -1.457680 -0.466977
-0.287242 -1.470219 -0.466977
-0.270658 -1.482759 -0.440017
-0.270658 -1.495298 -0.440017
-0.254074 -1.501567 -0.413056
-0.254074 -1.514107 -0.413056
-0.254074 -1.526646 -0.413056
-0.254074 -1.539185 -0.413056
-0.237491 -1.551724 -0.386096
-0.237491 -1.564263 -0.386096
-0.220907 -1.576802 -0.359135
-0.220907 -1.589342 -0.359135
-0.204323 -1.601881 -0.332175
-0.187740 -1.614420 -0.305214
-0.187740 -1.626959 -0.305214
-0.187740 -1.639498 -0.305214
-0.187740 -1.652038 -0.305214
-0.220907 -1.664577 -0.359135
-0.237491 -1.677116 -0.386096
-0.254074 -1.689655 -0.413056
-0.164634 0.429467 -0.244820
-0.182297 0.416928 -0.271086
-0.182297 0.404389 -0.271086
-0.182297 0.391850 -0.271086
-0.199960 0.379310 -0.297352
-0.199960 0.366771 -0.297352
-0.199960 0.354232 -0.297352
-0.217623 0.341693 -0.323618
-0.217623 0.329154 -0.323618
-0.235286 0.316614 -0.349884
-0.235286 0.304075 -0.349884
-0.235286 0.291536 -0.349884
-0.235286 0.278997 -0.349884
-0.252949 0.266458 -0.376150
-0.235286 0.253918 -0.349884
-0.235286 0.241379 -0.349884
-0.235286 0.228840 -0.349884
-0.235286 0.216301 -0.349884
-0.235286 0.203762 -0.349884
-0.235286 0.191223 -0.349884
-0.235286 0.178683 -0.349884
-0.235286 0.166144 -0.349884
-0.217623 0.153605 -0.323618
-0.235286 0.141066 -0.349884
-0.235286 0.128527 -0.349884
-0.341264 0.065831 -0.507480
-0.341264 0.053292 -0.507480
-0.341264 0.040752 -0.507480
-0.358927 0.028213 -0.533746
-0.358927 0.015674 -0.533746
-0.376590 0.003135 -0.560012
-0.376590 -0.009404 -0.560012
-0.394253 -0.021944 -0.586278
-0.394253 -0.034483 -0.586278
-0.394253 -0.047022 -0.586278
-0.394253 -0.059561 -0.586278
-0.394253 -0.072100 -0.586278
-0.394253 -0.084640 -0.586278
-0.394253 -0.097179 -0.586278
-0.394253 -0.109718 -0.586278
-0.394253 -0.122257 -0.586278
-0.394253 -0.134796 -0.586278
-0.394253 -0.147335 -0.586278
-0.394253 -0.159875 -0.586278
-0.394253 -0.172414 -0.586278
-0.376590 -0.184953 -0.560012
-0.376590 -0.197492 -0.560012
-0.376590 -0.210031 -0.560012
-0.358927 -0.222571 -0.533746
-0.358927 -0.235110 -0.533746
-0.358927 -0.247649 -0.533746
-0.341264 -0.253919 -0.507480
-0.323601 -0.266458 -0.481214
-0.323601 -0.278997 -0.481214
-0.305938 -0.291536 -0.454948
-0.305938 -0.304075 -0.454948
-0.305938 -0.316614 -0.454948
-0.305938 -0.329154 -0.454948
-0.288275 -0.341693 -0.428682
-0.288275 -0.354232 -0.428682
-0.288275 -0.366771 -0.428682
-0.288275 -0.379310 -0.428682
-0.288275 -0.391850 -0.428682
-0.270612 -0.404389 -0.402416
-0.270612 -0.416928 -0.402416
-0.270612 -0.429467 -0.402416
-0.270612 -0.442006 -0.402416
-0.270612 -0.454545 -0.402416
-0.252949 -0.467085 -0.376150
-0.270612 -0.479624 -0.402416
-0.270612 -0.492163 -0.402416
-0.270612 -0.504702 -0.402416
-0.270612 -0.517241 -0.402416
-0.270612 -0.529781 -0.402416
-0.270612 -0.542320 -0.402416
-0.252949 -0.554859 -0.376150
-0.252949 -0.567398 -0.376150
-0.252949 -0.579937 -0.376150
-0.252949 -0.592476 -0.376150
-0.252949 -0.605016 -0.376150
-0.252949 -0.617555 -0.376150
-0.252949 -0.630094 -0.376150
-0.270612 -0.642633 -0.402416
-0.270612 -0.655172 -0.402416
-0.270612 -0.667712 -0.402416
-0.270612 -0.680251 -0.402416
-0.270612 -0.692790 -0.402416
-0.270612 -0.705329 -0.402416
-0.305938 -0.717868 -0.454948
-0.394253 -0.730407 -0.586278
-0.411916 -0.742947 -0.612544
-0.429579 -0.755486 -0.638810
-0.411916 -0.768025 -0.612544
-0.411916 -0.780564 -0.612544
-0.411916 -0.793103 -0.612544
-0.429579 -0.805643 -0.638810
-0.429579 -0.818182 -0.638810
-0.411916 -0.830721 -0.612544
-0.411916 -0.843260 -0.612544
-0.411916 -0.855799 -0.612544
-0.411916 -0.868339 -0.612544
-0.411916 -0.880878 -0.612544
-0.411916 -0.893417 -0.612544
-0.411916 -0.905956 -0.612544
-0.411916 -0.918495 -0.612544
-0.411916 -0.931034 -0.612544
-0.394253 -0.943574 -0.586278
-0.394253 -0.956113 -0.586278
-0.394253 -0.968652 -0.586278
-0.394253 -0.981191 -0.586278
-0.394253 -0.993730 -0.586278
-0.394253 -1.006270 -0.586278
-0.394253 -1.018809 -0.586278
-0.394253 -1.031348 -0.586278
-0.394253 -1.043887 -0.586278
-0.394253 -1.056426 -0.586278
-0.394253 -1.068965 -0.586278
-0.394253 -1.081505 -0.586278
-0.394253 -1.094044 -0.586278
-0.394253 -1.106583 -0.586278
-0.394253 -1.119122 -0.586278
-0.394253 -1.131661 -0.586278
-0.394253 -1.144201 -0.586278
-0.376590 -1.156740 -0.560012
-0.376590 -1.169279 -0.560012
-0.376590 -1.181818 -0.560012
-0.376590 -1.194357 -0.560012
-0.376590 -1.206897 -0.560012
-0.376590 -1.219436 -0.560012
-0.376590 -1.231975 -0.560012
-0.376590 -1.244514 -0.560012
-0.358927 -1.257053 -0.533746
-0.358927 -1.269593 -0.533746
-0.358927 -1.282132 -0.533746
-0.358927 -1.294671 -0.533746
-0.358927 -1.307210 -0.533746
-0.341264 -1.319749 -0.507480
-0.341264 -1.332289 -0.507480
-0.341264 -1.344828 -0.507480
-0.341264 -1.357367 -0.507480
-0.341264 -1.369906 -0.507480
-0.323601 -1.382445 -0.481214
-0.323601 -1.394984 -0.481214
-0.323601 -1.407523 -0.481214
-0.323601 -1.420063 -0.481214
-0.323601 -1.432602 -0.481214
-0.305938 -1.445141 -0.454948
-0.305938 -1.457680 -0.454948
-0.288275 -1.470219 -0.428682
-0.288275 -1.482759 -0.428682
-0.288275 -1.495298 -0.428682
-0.270612 -1.501567 -0.402416
-0.270612 -1.514107 -0.402416
-0.270612 -1.526646 -0.402416
-0.270612 -1.539185 -0.402416
-0.252949 -1.551724 -0.376150
-0.252949 -1.564263 -0.376150
-0.252949 -1.576802 -0.376150
-0.235286 -1.589342 -0.349884
-0.217623 -1.601881 -0.323618
-0.199960 -1.614420 -0.297352
-0.182297 -1.626959 -0.271086
-0.199960 -1.639498 -0.297352
-0.199960 -1.652038 -0.297352
-0.217623 -1.664577 -0.323618
-0.235286 -1.677116 -0.349884
-0.252949 -1.689655 -0.376150
-0.394253 -1.764890 -0.586278
-0.394253 -1.777430 -0.586278
-0.176644 0.429467 -0.236301
-0.176644 0.416928 -0.236301
-0.195595 0.404389 -0.261652
-0.195595 0.391850 -0.261652
-0.214547 0.379310 -0.287005
-0.214547 0.366771 -0.287005
-0.214547 0.354232 -0.287005
-0.233498 0.341693 -0.312357
-0.233498 0.329154 -0.312357
-0.233498 0.316614 -0.312357
-0.233498 0.304075 -0.312357
-0.252450 0.291536 -0.337709
-0.252450 0.278997 -0.337709
-0.252450 0.266458 -0.337709
-0.271402 0.253918 -0.363061
-0.271402 0.241379 -0.363061
-0.271402 0.228840 -0.363061
-0.271402 0.216301 -0.363061
-0.252450 0.203762 -0.337709
-0.252450 0.191223 -0.337709
-0.252450 0.178683 -0.337709
-0.252450 0.166144 -0.337709
-0.252450 0.153605 -0.337709
-0.252450 0.141066 -0.337709
-0.252450 0.128527 -0.337709
-0.347208 0.053292 -0.464469
-0.347208 0.040752 -0.464469
-0.366160 0.028213 -0.489821
-0.366160 0.015674 -0.489821
-0.385111 0.003135 -0.515173
-0.385111 -0.009404 -0.515173
-0.404063 -0.021944 -0.540525
-0.404063 -0.034483 -0.540525
-0.404063 -0.047022 -0.540525
-0.404063 -0.059561 -0.540525
-0.404063 -0.072100 -0.540525
-0.404063 -0.084640 -0.540525
-0.404063 -0.097179 -0.540525
-0.404063 -0.109718 -0.540525
-0.404063 -0.122257 -0.540525
-0.404063 -0.134796 -0.540525
-0.404063 -0.147335 -0.540525
-0.404063 -0.159875 -0.540525
-0.404063 -0.172414 -0.540525
-0.404063 -0.184953 -0.540525
-0.385111 -0.197492 -0.515173
-0.385111 -0.210031 -0.515173
-0.385111 -0.222571 -0.515173
-0.385111 -0.235110 -0.515173
-0.385111 -0.247649 -0.515173
-0.366160 -0.253919 -0.489821
-0.347208 -0.266458 -0.464469
-0.347208 -0.278997 -0.464469
-0.328257 -0.291536 -0.439117
-0.309305 -0.304075 -0.413765
-0.309305 -0.316614 -0.413765
-0.309305 -0.329154 -0.413765
-0.309305 -0.341693 -0.413765
-0.309305 -0.354232 -0.413765
-0.290353 -0.366771 -0.388413
-0.290353 -0.379310 -0.388413
-0.290353 -0.391850 -0.388413
-0.290353 -0.404389 -0.388413
-0.290353 -0.416928 -0.388413
-0.271402 -0.429467 -0.363061
-0.271402 -0.442006 -0.363061
-0.271402 -0.454545 -0.363061
-0.271402 -0.467085 -0.363061
-0.271402 -0.479624 -0.363061
-0.271402 -0.492163 -0.363061
-0.290353 -0.504702 -0.388413
-0.290353 -0.517241 -0.388413
-0.290353 -0.529781 -0.388413
-0.290353 -0.542320 -0.388413
-0.290353 -0.554859 -0.388413
-0.271402 -0.567398 -0.363061
-0.271402 -0.579937 -0.363061
-0.271402 -0.592476 -0.363061
-0.271402 -0.605016 -0.363061
-0.271402 -0.617555 -0.363061
-0.271402 -0.630094 -0.363061
-0.271402 -0.642633 -0.363061
-0.271402 -0.655172 -0.363061
-0.290353 -0.667712 -0.388413
-0.290353 -0.680251 -0.388413
-0.290353 -0.692790 -0.388413
-0.290353 -0.705329 -0.388413
-0.328257 -0.717868 -0.439117
-0.404063 -0.730407 -0.540525
-0.423014 -0.742947 -0.565876
-0.441966 -0.755486 -0.591228
-0.441966 -0.768025 -0.591228
-0.441966 -0.780564 -0.591228
-0.460918 -0.793103 -0.616581
-0.460918 -0.805643 -0.616581
-0.441966 -0.818182 -0.591228
-0.441966 -0.830721 -0.591228
-0.441966 -0.843260 -0.591228
-0.441966 -0.855799 -0.591228
-0.441966 -0.868339 -0.591228
-0.441966 -0.880878 -0.591228
-0.441966 -0.893417 -0.591228
-0.441966 -0.905956 -0.591228
-0.441966 -0.918495 -0.591228
-0.441966 -0.931034 -0.591228
-0.441966 -0.943574 -0.591228
-0.441966 -0.956113 -0.591228
-0.441966 -0.968652 -0.591228
-0.441966 -0.981191 -0.591228
-0.441966 -0.993730 -0.591228
-0.441966 -1.006270 -0.591228
-0.441966 -1.018809 -0.591228
-0.441966 -1.031348 -0.591228
-0.441966 -1.043887 -0.591228
-0.423014 -1.056426 -0.565876
-0.423014 -1.068965 -0.565876
-0.423014 -1.081505 -0.565876
-0.423014 -1.094044 -0.565876
-0.423014 -1.106583 -0.565876
-0.423014 -1.119122 -0.565876
-0.423014 -1.131661 -0.565876
-0.423014 -1.144201 -0.565876
-0.423014 -1.156740 -0.565876
-0.423014 -1.169279 -0.565876
-0.404063 -1.181818 -0.540525
-0.404063 -1.194357 -0.540525
-0.404063 -1.206897 -0.540525
-0.404063 -1.219436 -0.540525
-0.404063 -1.231975 -0.540525
-0.404063 -1.244514 -0.540525
-0.385111 -1.257053 -0.515173
-0.385111 -1.269593 -0.515173
-0.385111 -1.282132 -0.515173
-0.385111 -1.294671 -0.515173
-0.385111 -1.307210 -0.515173
-0.385111 -1.319749 -0.515173
-0.366160 -1.332289 -0.489821
-0.366160 -1.344828 -0.489821
-0.366160 -1.357367 -0.489821
-0.366160 -1.369906 -0.489821
-0.366160 -1.382445 -0.489821
-0.347208 -1.394984 -0.464469
-0.347208 -1.407523 -0.464469
-0.347208 -1.420063 -0.464469
-0.328257 -1.432602 -0.439117
-0.328257 -1.445141 -0.439117
-0.328257 -1.457680 -0.439117
-0.328257 -1.470219 -0.439117
-0.309305 -1.482759 -0.413765
-0.309305 -1.495298 -0.413765
-0.309305 -1.501567 -0.413765
-0.290353 -1.514107 -0.388413
-0.290353 -1.526646 -0.388413
-0.290353 -1.539185 -0.388413
-0.271402 -1.551724 -0.363061
-0.271402 -1.564263 -0.363061
-0.252450 -1.576802 -0.337709
-0.252450 -1.589342 -0.337709
-0.233498 -1.601881 -0.312357
-0.214547 -1.614420 -0.287005
-0.214547 -1.626959 -0.287005
-0.214547 -1.639498 -0.287005
-0.214547 -1.652038 -0.287005
-0.233498 -1.664577 -0.312357
-0.188214 0.429467 -0.227193
-0.188214 0.416928 -0.227193
-0.188214 0.404389 -0.227193
-0.208407 0.391850 -0.251567
-0.208407 0.379310 -0.251567
-0.228600 0.366771 -0.275942
-0.228600 0.354232 -0.275942
-0.228600 0.341693 -0.275942
-0.228600 0.329154 -0.275942
-0.248793 0.316614 -0.300317
-0.248793 0.304075 -0.300317
-0.248793 0.291536 -0.300317
-0.248793 0.278997 -0.300317
-0.268986 0.266458 -0.324692
-0.268986 0.253918 -0.324692
-0.289179 0.241379 -0.349067
-0.289179 0.228840 -0.349067
-0.289179 0.216301 -0.349067
-0.289179 0.203762 -0.349067
-0.268986 0.191223 -0.324692
-0.268986 0.178683 -0.324692
-0.268986 0.166144 -0.324692
-0.268986 0.153605 -0.324692
-0.268986 0.141066 -0.324692
-0.268986 0.128527 -0.324692
-0.268986 0.115987 -0.324692
-0.289179 0.103448 -0.349067
-0.289179 0.090909 -0.349067
-0.289179 0.078370 -0.349067
-0.289179 0.065831 -0.349067
-0.289179 0.053292 -0.349067
-0.349757 0.040752 -0.422191
-0.349757 0.028213 -0.422191
-0.369950 0.015674 -0.446566
-0.390143 0.003135 -0.470941
-0.390143 -0.009404 -0.470941
-0.410336 -0.021944 -0.495316
-0.410336 -0.034483 -0.495316
-0.410336 -0.047022 -0.495316
-0.410336 -0.059561 -0.495316
-0.410336 -0.072100 -0.495316
-0.410336 -0.084640 -0.495316
-0.410336 -0.097179 -0.495316
-0.410336 -0.109718 -0.495316
-0.430529 -0.122257 -0.519691
-0.430529 -0.134796 -0.519691
-0.430529 -0.147335 -0.519691
-0.430529 -0.159875 -0.519691
-0.430529 -0.172414 -0.519691
-0.430529 -0.184953 -0.519691
-0.430529 -0.197492 -0.519691
-0.410336 -0.210031 -0.495316
-0.410336 -0.222571 -0.495316
-0.390143 -0.235110 -0.470941
-0.390143 -0.247649 -0.470941
-0.369950 -0.253919 -0.446566
-0.369950 -0.266458 -0.446566
-0.349757 -0.278997 -0.422191
-0.329564 -0.291536 -0.397816
-0.329564 -0.304075 -0.397816
-0.309372 -0.316614 -0.373442
-0.309372 -0.329154 -0.373442
-0.309372 -0.341693 -0.373442
-0.309372 -0.354232 -0.373442
-0.309372 -0.366771 -0.373442
-0.309372 -0.379310 -0.373442
-0.309372 -0.391850 -0.373442
-0.289179 -0.404389 -0.349067
-0.289179 -0.416928 -0.349067
-0.289179 -0.429467 -0.349067
-0.289179 -0.442006 -0.349067
-0.289179 -0.454545 -0.349067
-0.289179 -0.467085 -0.349067
-0.289179 -0.479624 -0.349067
-0.289179 -0.492163 -0.349067
-0.289179 -0.504702 -0.349067
-0.289179 -0.517241 -0.349067
-0.289179 -0.529781 -0.349067
-0.289179 -0.542320 -0.349067
-0.289179 -0.554859 -0.349067
-0.289179 -0.567398 -0.349067
-0.289179 -0.579937 -0.349067
-0.289179 -0.592476 -0.349067
-0.289179 -0.605016 -0.349067
-0.289179 -0.617555 -0.349067
-0.309372 -0.630094 -0.373442
-0.309372 -0.642633 -0.373442
-0.309372 -0.655172 -0.373442
-0.309372 -0.667712 -0.373442
-0.309372 -0.680251 -0.373442
-0.309372 -0.692790 -0.373442
-0.309372 -0.705329 -0.373442
-0.349757 -0.717868 -0.422191
-0.430529 -0.730407 -0.519691
-0.450722 -0.742947 -0.544065
-0.491108 -0.755486 -0.592815
-0.491108 -0.768025 -0.592815
-0.470915 -0.780564 -0.568440
-0.470915 -0.793103 -0.568440
-0.470915 -0.805643 -0.568440
-0.470915 -0.818182 -0.568440
-0.470915 -0.830721 -0.568440
-0.470915 -0.843260 -0.568440
-0.470915 -0.855799 -0.568440
-0.470915 -0.868339 -0.568440
-0.470915 -0.880878 -0.568440
-0.470915 -0.893417 -0.568440
-0.470915 -0.905956 -0.568440
-0.470915 -0.918495 -0.568440
-0.470915 -0.931034 -0.568440
-0.470915 -0.943574 -0.568440
-0.470915 -0.956113 -0.568440
-0.470915 -0.968652 -0.568440
-0.470915 -0.981191 -0.568440
-0.470915 -0.993730 -0.568440
-0.470915 -1.006270 -0.568440
-0.450722 -1.018809 -0.544065
-0.450722 -1.031348 -0.544065
-0.450722 -1.043887 -0.544065
-0.450722 -1.056426 -0.544065
-0.450722 -1.068965 -0.544065
-0.450722 -1.081505 -0.544065
-0.450722 -1.094044 -0.544065
-0.450722 -1.106583 -0.544065
-0.430529 -1.119122 -0.519691
-0.430529 -1.131661 -0.519691
-0.430529 -1.144201 -0.519691
-0.430529 -1.156740 -0.519691
-0.430529 -1.169279 -0.519691
-0.430529 -1.181818 -0.519691
-0.430529 -1.194357 -0.519691
-0.430529 -1.206897 -0.519691
-0.430529 -1.219436 -0.519691
-0.430529 -1.231975 -0.519691
-0.430529 -1.244514 -0.519691
-0.430529 -1.257053 -0.519691
-0.410336 -1.269593 -0.495316
-0.410336 -1.282132 -0.495316
-0.410336 -1.294671 -0.495316
-0.390143 -1.307210 -0.470941
-0.390143 -1.319749 -0.470941
-0.390143 -1.332289 -0.470941
-0.390143 -1.344828 -0.470941
-0.390143 -1.357367 -0.470941
-0.390143 -1.369906 -0.470941
-0.369950 -1.382445 -0.446566
-0.369950 -1.394984 -0.446566
-0.369950 -1.407523 -0.446566
-0.369950 -1.420063 -0.446566
-0.349757 -1.432602 -0.422191
-0.349757 -1.445141 -0.422191
-0.349757 -1.457680 -0.422191
-0.329564 -1.470219 -0.397816
-0.329564 -1.482759 -0.397816
-0.329564 -1.495298 -0.397816
-0.309372 -1.501567 -0.373442
-0.309372 -1.514107 -0.373442
-0.309372 -1.526646 -0.373442
-0.309372 -1.539185 -0.373442
-0.289179 -1.551724 -0.349067
-0.289179 -1.564263 -0.349067
-0.268986 -1.576802 -0.324692
-0.268986 -1.589342 -0.324692
-0.248793 -1.601881 -0.300317
-0.248793 -1.614420 -0.300317
-0.228600 -1.626959 -0.275942
-0.208407 -1.639498 -0.251567
-0.228600 -1.652038 -0.275942
-0.248793 -1.664577 -0.300317
-0.248793 -1.677116 -0.300317
-0.199316 0.429467 -0.217519
-0.177932 0.416928 -0.194182
-0.199316 0.404389 -0.217519
-0.199316 0.391850 -0.217519
-0.220699 0.379310 -0.240855
-0.242083 0.366771 -0.264192
-0.242083 0.354232 -0.264192
-0.242083 0.341693 -0.264192
-0.242083 0.329154 -0.264192
-0.242083 0.316614 -0.264192
-0.263467 0.304075 -0.287529
-0.263467 0.291536 -0.287529
-0.263467 0.278997 -0.287529
-0.284851 0.266458 -0.310866
-0.284851 0.253918 -0.310866
-0.306235 0.241379 -0.334203
-0.306235 0.228840 -0.334203
-0.306235 0.216301 -0.334203
-0.306235 0.203762 -0.334203
-0.284851 0.191223 -0.310866
-0.284851 0.178683 -0.310866
-0.284851 0.166144 -0.310866
-0.306235 0.153605 -0.334203
-0.306235 0.141066 -0.334203
-0.306235 0.128527 -0.334203
-0.327619 0.115987 -0.357540
-0.327619 0.103448 -0.357540
-0.306235 0.090909 -0.334203
-0.284851 0.078370 -0.310866
-0.306235 0.065831 -0.334203
-0.306235 0.053292 -0.334203
-0.306235 0.040752 -0.334203
-0.327619 0.028213 -0.357540
-0.327619 0.015674 -0.357540
-0.327619 0.003135 -0.357540
-0.391771 -0.034483 -0.427551
-0.413155 -0.047022 -0.450888
-0.413155 -0.059561 -0.450888
-0.413155 -0.072100 -0.450888
-0.413155 -0.084640 -0.450888
-0.434539 -0.097179 -0.474225
-0.434539 -0.109718 -0.474225
-0.434539 -0.122257 -0.474225
-0.434539 -0.134796 -0.474225
-0.434539 -0.147335 -0.474225
-0.434539 -0.159875 -0.474225
-0.434539 -0.172414 -0.474225
-0.434539 -0.184953 -0.474225
-0.434539 -0.197492 -0.474225
-0.434539 -0.210031 -0.474225
-0.413155 -0.222571 -0.450888
-0.391771 -0.235110 -0.427551
-0.391771 -0.247649 -0.427551
-0.391771 -0.253919 -0.427551
-0.370387 -0.266458 -0.404214
-0.349003 -0.278997 -0.380877
-0.349003 -0.291536 -0.380877
-0.327619 -0.304075 -0.357540
-0.327619 -0.316614 -0.357540
-0.327619 -0.329154 -0.357540
-0.327619 -0.341693 -0.357540
-0.327619 -0.354232 -0.357540
-0.327619 -0.366771 -0.357540
-0.327619 -0.379310 -0.357540
-0.327619 -0.391850 -0.357540
-0.306235 -0.404389 -0.334203
-0.306235 -0.416928 -0.334203
-0.306235 -0.429467 -0.334203
-0.306235 -0.442006 -0.334203
-0.306235 -0.454545 -0.334203
-0.306235 -0.467085 -0.334203
-0.306235 -0.479624 -0.334203
-0.306235 -0.492163 -0.334203
-0.306235 -0.504702 -0.334203
-0.306235 -0.517241 -0.334203
-0.306235 -0.529781 -0.334203
-0.284851 -0.542320 -0.310866
-0.284851 -0.554859 -0.310866
-0.284851 -0.567398 -0.310866
-0.284851 -0.579937 -0.310866
-0.284851 -0.592476 -0.310866
-0.306235 -0.605016 -0.334203
-0.306235 -0.617555 -0.334203
-0.306235 -0.630094 -0.334203
-0.306235 -0.642633 -0.334203
-0.306235 -0.655172 -0.334203
-0.327619 -0.667712 -0.357540
-0.327619 -0.680251 -0.357540
-0.327619 -0.692790 -0.357540
-0.327619 -0.705329 -0.357540
-0.349003 -0.717868 -0.380877
-0.455923 -0.730407 -0.497562
-0.477307 -0.742947 -0.520898
-0.520075 -0.755486 -0.567572
-0.520075 -0.768025 -0.567572
-0.498691 -0.780564 -0.544235
-0.498691 -0.793103 -0.544235
-0.498691 -0.805643 -0.544235
-0.498691 -0.818182 -0.544235
-0.498691 -0.830721 -0.544235
-0.498691 -0.843260 -0.544235
-0.498691 -0.855799 -0.544235
-0.498691 -0.868339 -0.544235
-0.498691 -0.880878 -0.544235
-0.498691 -0.893417 -0.544235
-0.498691 -0.905956 -0.544235
-0.498691 -0.918495 -0.544235
-0.498691 -0.931034 -0.544235
-0.477307 -0.943574 -0.520898
-0.477307 -0.956113 -0.520898
-0.477307 -0.968652 -0.520898
-0.498691 -0.981191 -0.544235
-0.498691 -0.993730 -0.544235
-0.498691 -1.006270 -0.544235
-0.498691 -1.018809 -0.544235
-0.498691 -1.031348 -0.544235
-0.498691 -1.043887 -0.544235
-0.477307 -1.056426 -0.520898
-0.477307 -1.068965 -0.520898
-0.477307 -1.081505 -0.520898
-0.477307 -1.094044 -0.520898
-0.477307 -1.106583 -0.520898
-0.477307 -1.119122 -0.520898
-0.477307 -1.131661 -0.520898
-0.477307 -1.144201 -0.520898
-0.477307 -1.156740 -0.520898
-0.455923 -1.169279 -0.497562
-0.455923 -1.181818 -0.497562
-0.455923 -1.194357 -0.497562
-0.455923 -1.206897 -0.497562
-0.455923 -1.219436 -0.497562
-0.455923 -1.231975 -0.497562
-0.434539 -1.244514 -0.474225
-0.434539 -1.257053 -0.474225
-0.434539 -1.269593 -0.474225
-0.434539 -1.282132 -0.474225
-0.434539 -1.294671 -0.474225
-0.434539 -1.307210 -0.474225
-0.434539 -1.319749 -0.474225
-0.413155 -1.332289 -0.450888
-0.413155 -1.344828 -0.450888
-0.413155 -1.357367 -0.450888
-0.391771 -1.369906 -0.427551
-0.391771 -1.382445 -0.427551
-0.391771 -1.394984 -0.427551
-0.391771 -1.407523 -0.427551
-0.370387 -1.420063 -0.404214
-0.370387 -1.432602 -0.404214
-0.370387 -1.445141 -0.404214
-0.370387 -1.457680 -0.404214
-0.370387 -1.470219 -0.404214
-0.349003 -1.482759 -0.380877
-0.349003 -1.495298 -0.380877
-0.327619 -1.501567 -0.357540
-0.327619 -1.514107 -0.357540
-0.327619 -1.526646 -0.357540
-0.327619 -1.539185 -0.357540
-0.306235 -1.551724 -0.334203
-0.306235 -1.564263 -0.334203
-0.284851 -1.576802 -0.310866
-0.284851 -1.589342 -0.310866
-0.263467 -1.601881 -0.287529
-0.242083 -1.614420 -0.264192
-0.220699 -1.626959 -0.240855
-0.220699 -1.639498 -0.240855
-0.242083 -1.652038 -0.264192
-0.242083 -1.664577 -0.264192
-0.263467 -1.727273 -0.287529
-0.263467 -1.739812 -0.287529
-0.180826 0.416928 -0.191489
-0.202558 0.404389 -0.214502
-0.202558 0.391850 -0.214502
-0.224290 0.379310 -0.237516
-0.246022 0.366771 -0.260529
-0.246022 0.354232 -0.260529
-0.246022 0.341693 -0.260529
-0.246022 0.329154 -0.260529
-0.246022 0.316614 -0.260529
-0.267753 0.304075 -0.283542
-0.267753 0.291536 -0.283542
-0.267753 0.278997 -0.283542
-0.267753 0.266458 -0.283542
-0.289485 0.253918 -0.306556
-0.289485 0.241379 -0.306556
-0.311217 0.228840 -0.329569
-0.289485 0.216301 -0.306556
-0.289485 0.203762 -0.306556
-0.289485 0.191223 -0.306556
-0.289485 0.178683 -0.306556
-0.289485 0.166144 -0.306556
-0.289485 0.153605 -0.306556
-0.311217 0.141066 -0.329569
-0.311217 0.128527 -0.329569
-0.311217 0.115987 -0.329569
-0.311217 0.103448 -0.329569
-0.311217 0.090909 -0.329569
-0.311217 0.078370 -0.329569
-0.289485 0.065831 -0.306556
-0.311217 0.053292 -0.329569
-0.311217 0.040752 -0.329569
-0.332949 0.028213 -0.352582
-0.332949 0.015674 -0.352582
-0.332949 0.003135 -0.352582
-0.354681 -0.009404 -0.375596
-0.354681 -0.021944 -0.375596
-0.354681 -0.034483 -0.375596
-0.376413 -0.047022 -0.398609
-0.376413 -0.059561 -0.398609
-0.376413 -0.072100 -0.398609
-0.398145 -0.084640 -0.421623
-0.398145 -0.097179 -0.421623
-0.419876 -0.109718 -0.444636
-0.419876 -0.122257 -0.444636
-0.419876 -0.134796 -0.444636
-0.419876 -0.147335 -0.444636
-0.419876 -0.159875 -0.444636
-0.419876 -0.172414 -0.444636
-0.419876 -0.184953 -0.444636
-0.419876 -0.197492 -0.444636
-0.419876 -0.210031 -0.444636
-0.419876 -0.222571 -0.444636
-0.398145 -0.235110 -0.421623
-0.398145 -0.247649 -0.421623
-0.376413 -0.253919 -0.398609
-0.354681 -0.266458 -0.375596
-0.354681 -0.278997 -0.375596
-0.354681 -0.291536 -0.375596
-0.354681 -0.304075 -0.375596
-0.332949 -0.316614 -0.352582
-0.332949 -0.329154 -0.352582
-0.332949 -0.341693 -0.352582
-0.311217 -0.354232 -0.329569
-0.311217 -0.366771 -0.329569
-0.311217 -0.379310 -0.329569
-0.311217 -0.391850 -0.329569
-0.311217 -0.404389 -0.329569
-0.311217 -0.416928 -0.329569
-0.311217 -0.429467 -0.329569
-0.311217 -0.442006 -0.329569
-0.311217 -0.454545 -0.329569
-0.311217 -0.467085 -0.329569
-0.311217 -0.479624 -0.329569
-0.311217 -0.492163 -0.329569
-0.311217 -0.504702 -0.329569
-0.289485 -0.517241 -0.306556
-0.289485 -0.529781 -0.306556
-0.289485 -0.542320 -0.306556
-0.289485 -0.554859 -0.306556
-0.289485 -0.567398 -0.306556
-0.289485 -0.579937 -0.306556
-0.289485 -0.592476 -0.306556
-0.289485 -0.605016 -0.306556
-0.289485 -0.617555 -0.306556
-0.311217 -0.630094 -0.329569
-0.311217 -0.642633 -0.329569
-0.311217 -0.655172 -0.329569
-0.311217 -0.667712 -0.329569
-0.311217 -0.680251 -0.329569
-0.311217 -0.692790 -0.329569
-0.332949 -0.705329 -0.352582
-0.376413 -0.717868 -0.398609
-0.485072 -0.730407 -0.513676
-0.506804 -0.742947 -0.536689
-0.528535 -0.755486 -0.559702
-0.506804 -0.768025 -0.536689
-0.506804 -0.780564 -0.536689
-0.506804 -0.793103 -0.536689
-0.506804 -0.805643 -0.536689
-0.506804 -0.818182 -0.536689
-0.506804 -0.830721 -0.536689
-0.506804 -0.843260 -0.536689
-0.506804 -0.855799 -0.536689
-0.506804 -0.868339 -0.536689
-0.506804 -0.880878 -0.536689
-0.506804 -0.893417 -0.536689
-0.506804 -0.905956 -0.536689
-0.485072 -0.918495 -0.513676
-0.485072 -0.931034 -0.513676
-0.485072 -0.943574 -0.513676
-0.485072 -0.956113 -0.513676
-0.485072 -0.968652 -0.513676
-0.485072 -0.981191 -0.513676
-0.485072 -0.993730 -0.513676
-0.485072 -1.006270 -0.513676
-0.506804 -1.018809 -0.536689
-0.506804 -1.031348 -0.536689
-0.506804 -1.043887 -0.536689
-0.485072 -1.056426 -0.513676
-0.485072 -1.068965 -0.513676
-0.485072 -1.081505 -0.513676
-0.485072 -1.094044 -0.513676
-0.485072 -1.106583 -0.513676
-0.485072 -1.119122 -0.513676
-0.485072 -1.131661 -0.513676
-0.485072 -1.144201 -0.513676
-0.463340 -1.156740 -0.490662
-0.463340 -1.169279 -0.490662
-0.463340 -1.181818 -0.490662
-0.463340 -1.194357 -0.490662
-0.463340 -1.206897 -0.490662
-0.463340 -1.219436 -0.490662
-0.463340 -1.231975 -0.490662
-0.463340 -1.244514 -0.490662
-0.463340 -1.257053 -0.490662
-0.441608 -1.269593 -0.467649
-0.441608 -1.282132 -0.467649
-0.441608 -1.294671 -0.467649
-0.441608 -1.307210 -0.467649
-0.441608 -1.319749 -0.467649
-0.419876 -1.332289 -0.444636
-0.419876 -1.344828 -0.444636
-0.419876 -1.357367 -0.444636
-0.398145 -1.369906 -0.421623
-0.398145 -1.382445 -0.421623
-0.398145 -1.394984 -0.421623
-0.398145 -1.407523 -0.421623
-0.376413 -1.420063 -0.398609
-0.376413 -1.432602 -0.398609
-0.376413 -1.445141 -0.398609
-0.376413 -1.457680 -0.398609
-0.376413 -1.470219 -0.398609
-0.354681 -1.482759 -0.375596
-0.354681 -1.495298 -0.375596
-0.332949 -1.501567 -0.352582
-0.332949 -1.514107 -0.352582
-0.332949 -1.526646 -0.352582
-0.311217 -1.539185 -0.329569
-0.311217 -1.551724 -0.329569
-0.311217 -1.564263 -0.329569
-0.289485 -1.576802 -0.306556
-0.289485 -1.589342 -0.306556
-0.267753 -1.601881 -0.283542
-0.246022 -1.614420 -0.260529
-0.224290 -1.626959 -0.237516
-0.224290 -1.639498 -0.237516
-0.246022 -1.652038 -0.260529
-0.267753 -1.664577 -0.283542
-0.267753 -1.677116 -0.283542
-0.267753 -1.689655 -0.283542
-0.187979 0.404389 -0.184473
-0.210570 0.391850 -0.206643
-0.210570 0.379310 -0.206643
-0.233161 0.366771 -0.228813
-0.233161 0.354232 -0.228813
-0.255753 0.341693 -0.250983
-0.255753 0.329154 -0.250983
-0.278344 0.316614 -0.273153
-0.278344 0.304075 -0.273153
-0.278344 0.291536 -0.273153
-0.278344 0.278997 -0.273153
-0.278344 0.266458 -0.273153
-0.300936 0.253918 -0.295323
-0.300936 0.241379 -0.295323
-0.323527 0.228840 -0.317493
-0.323527 0.216301 -0.317493
-0.323527 0.203762 -0.317493
-0.323527 0.191223 -0.317493
-0.323527 0.178683 -0.317493
-0.323527 0.166144 -0.317493
-0.323527 0.153605 -0.317493
-0.323527 0.141066 -0.317493
-0.323527 0.128527 -0.317493
-0.300936 0.115987 -0.295323
-0.300936 0.103448 -0.295323
-0.300936 0.090909 -0.295323
-0.300936 0.078370 -0.295323
-0.300936 0.065831 -0.295323
-0.300936 0.053292 -0.295323
-0.323527 0.040752 -0.317493
-0.323527 0.028213 -0.317493
-0.346119 0.015674 -0.339664
-0.346119 0.003135 -0.339664
-0.346119 -0.009404 -0.339664
-0.368710 -0.021944 -0.361834
-0.368710 -0.034483 -0.361834
-0.368710 -0.047022 -0.361834
-0.368710 -0.059561 -0.361834
-0.368710 -0.072100 -0.361834
-0.391302 -0.084640 -0.384004
-0.391302 -0.097179 -0.384004
-0.391302 -0.109718 -0.384004
-0.391302 -0.122257 -0.384004
-0.391302 -0.134796 -0.384004
-0.413893 -0.147335 -0.406174
-0.413893 -0.159875 -0.406174
-0.413893 -0.172414 -0.406174
-0.391302 -0.184953 -0.384004
-0.391302 -0.197492 -0.384004
-0.391302 -0.210031 -0.384004
-0.391302 -0.222571 -0.384004
-0.391302 -0.235110 -0.384004
-0.368710 -0.247649 -0.361834
-0.368710 -0.253919 -0.361834
-0.368710 -0.266458 -0.361834
-0.368710 -0.278997 -0.361834
-0.368710 -0.291536 -0.361834
-0.346119 -0.304075 -0.339664
-0.346119 -0.316614 -0.339664
-0.346119 -0.329154 -0.339664
-0.346119 -0.341693 -0.339664
-0.346119 -0.354232 -0.339664
-0.346119 -0.366771 -0.339664
-0.346119 -0.379310 -0.339664
-0.346119 -0.391850 -0.339664
-0.346119 -0.404389 -0.339664
-0.346119 -0.416928 -0.339664
-0.346119 -0.429467 -0.339664
-0.323527 -0.442006 -0.317493
-0.323527 -0.454545 -0.317493
-0.323527 -0.467085 -0.317493
-0.323527 -0.479624 -0.317493
-0.323527 -0.492163 -0.317493
-0.323527 -0.504702 -0.317493
-0.368710 -0.517241 -0.361834
-0.346119 -0.529781 -0.339664
-0.504259 -0.542320 -0.494854
-0.549441 -0.554859 -0.539194
-0.572033 -0.567398 -0.561365
-0.594624 -0.579937 -0.583535
-0.617216 -0.592476 -0.605705
-0.639807 -0.605016 -0.627875
-0.684990 -0.617555 -0.672215
-0.707582 -0.630094 -0.694385
-0.707582 -0.642633 -0.694385
-0.707582 -0.655172 -0.694385
-0.707582 -0.667712 -0.694385
-0.707582 -0.680251 -0.694385
-0.730173 -0.692790 -0.716555
-0.730173 -0.705329 -0.716555
-0.730173 -0.717868 -0.716555
-0.730173 -0.730407 -0.716555
-0.752764 -0.742947 -0.738725
-0.752764 -0.755486 -0.738725
-0.752764 -0.768025 -0.738725
-0.752764 -0.780564 -0.738725
-0.707582 -0.793103 -0.694385
-0.662399 -0.805643 -0.650045
-0.617216 -0.818182 -0.605705
-0.594624 -0.830721 -0.583535
-0.526850 -0.843260 -0.517024
-0.526850 -0.855799 -0.517024
-0.549441 -0.868339 -0.539194
-0.549441 -0.880878 -0.539194
-0.549441 -0.893417 -0.539194
-0.526850 -0.905956 -0.517024
-0.526850 -0.918495 -0.517024
-0.526850 -0.931034 -0.517024
-0.526850 -0.943574 -0.517024
-0.526850 -0.956113 -0.517024
-0.526850 -0.968652 -0.517024
-0.526850 -0.981191 -0.517024
-0.526850 -0.993730 -0.517024
-0.526850 -1.006270 -0.517024
-0.526850 -1.018809 -0.517024
-0.526850 -1.031348 -0.517024
-0.526850 -1.043887 -0.517024
-0.526850 -1.056426 -0.517024
-0.526850 -1.068965 -0.517024
-0.526850 -1.081505 -0.517024
-0.526850 -1.094044 -0.517024
-0.526850 -1.106583 -0.517024
-0.526850 -1.119122 -0.517024
-0.526850 -1.131661 -0.517024
-0.504259 -1.144201 -0.494854
-0.504259 -1.156740 -0.494854
-0.504259 -1.169279 -0.494854
-0.504259 -1.181818 -0.494854
-0.504259 -1.194357 -0.494854
-0.504259 -1.206897 -0.494854
-0.504259 -1.219436 -0.494854
-0.504259 -1.231975 -0.494854
-0.481667 -1.244514 -0.472684
-0.481667 -1.257053 -0.472684
-0.481667 -1.269593 -0.472684
-0.481667 -1.282132 -0.472684
-0.459076 -1.294671 -0.450514
-0.459076 -1.307210 -0.450514
-0.459076 -1.319749 -0.450514
-0.459076 -1.332289 -0.450514
-0.436484 -1.344828 -0.428344
-0.436484 -1.357367 -0.428344
-0.436484 -1.369906 -0.428344
-0.436484 -1.382445 -0.428344
-0.436484 -1.394984 -0.428344
-0.436484 -1.407523 -0.428344
-0.413893 -1.420063 -0.406174
-0.413893 -1.432602 -0.406174
-0.413893 -1.445141 -0.406174
-0.391302 -1.457680 -0.384004
-0.391302 -1.470219 -0.384004
-0.391302 -1.482759 -0.384004
-0.368710 -1.495298 -0.361834
-0.368710 -1.501567 -0.361834
-0.368710 -1.514107 -0.361834
-0.368710 -1.526646 -0.361834
-0.346119 -1.539185 -0.339664
-0.346119 -1.551724 -0.339664
-0.323527 -1.564263 -0.317493
-0.323527 -1.576802 -0.317493
-0.300936 -1.589342 -0.295323
-0.300936 -1.601881 -0.295323
-0.278344 -1.614420 -0.273153
-0.255753 -1.626959 -0.250983
-0.255753 -1.639498 -0.250983
-0.255753 -1.652038 -0.250983
-0.278344 -1.664577 -0.273153
-0.278344 -1.677116 -0.273153
-0.104134 0.416928 -0.014302
-0.135492 0.404389 -0.018608
-0.135492 0.391850 -0.018608
-0.166850 0.379310 -0.022915
-0.166850 0.366771 -0.022915
-0.198209 0.354232 -0.027222
-0.198209 0.341693 -0.027222
-0.229567 0.329154 -0.031528
-0.229567 0.316614 -0.031528
-0.229567 0.304075 -0.031528
-0.229567 0.291536 -0.031528
-0.260925 0.278997 -0.035835
-0.292283 0.266458 -0.040142
-0.323642 0.253918 -0.044448
-0.323642 0.241379 -0.044448
-0.323642 0.228840 -0.044448
-0.323642 0.216301 -0.044448
-0.355000 0.203762 -0.048755
-0.355000 0.191223 -0.048755
-0.355000 0.178683 -0.048755
-0.355000 0.166144 -0.048755
-0.323642 0.153605 -0.044448
-0.323642 0.141066 -0.044448
-0.323642 0.128527 -0.044448
-0.323642 0.115987 -0.044448
-0.323642 0.103448 -0.044448
-0.355000 0.090909 -0.048755
-0.355000 0.078370 -0.048755
-0.355000 0.065831 -0.048755
-0.386358 0.053292 -0.053062
-0.386358 0.040752 -0.053062
-0.386358 0.028213 -0.053062
-0.386358 0.015674 -0.053062
-0.386358 0.003135 -0.053062
-0.417716 -0.009404 -0.057369
-0.386358 -0.021944 -0.053062
-0.417716 -0.034483 -0.057369
-0.449075 -0.047022 -0.061675
-0.449075 -0.059561 -0.061675
-0.480433 -0.072100 -0.065982
-0.417716 -0.084640 -0.057369
-0.417716 -0.097179 -0.057369
-0.417716 -0.109718 -0.057369
-0.449075 -0.122257 -0.061675
-0.449075 -0.134796 -0.061675
-0.449075 -0.147335 -0.061675
-0.449075 -0.159875 -0.061675
-0.449075 -0.172414 -0.061675
-0.449075 -0.184953 -0.061675
-0.449075 -0.197492 -0.061675
-0.449075 -0.210031 -0.061675
-0.449075 -0.222571 -0.061675
-0.449075 -0.235110 -0.061675
-0.449075 -0.247649 -0.061675
-0.449075 -0.253919 -0.061675
-0.449075 -0.266458 -0.061675
-0.449075 -0.278997 -0.061675
-0.449075 -0.291536 -0.061675
-0.480433 -0.304075 -0.065982
-0.480433 -0.316614 -0.065982
-0.480433 -0.329154 -0.065982
-0.480433 -0.341693 -0.065982
-0.480433 -0.354232 -0.065982
-0.480433 -0.366771 -0.065982
-0.480433 -0.379310 -0.065982
-0.449075 -0.391850 -0.061675
-0.449075 -0.404389 -0.061675
-0.449075 -0.416928 -0.061675
-0.449075 -0.429467 -0.061675
-0.637224 -0.479624 -0.087515
-0.637224 -0.492163 -0.087515
-0.637224 -0.504702 -0.087515
-0.637224 -0.517241 -0.087515
-0.668582 -0.529781 -0.091822
-0.668582 -0.542320 -0.091822
-0.668582 -0.554859 -0.091822
-0.699940 -0.567398 -0.096129
-0.699940 -0.579937 -0.096129
-0.699940 -0.592476 -0.096129
-0.699940 -0.605016 -0.096129
-0.699940 -0.617555 -0.096129
-0.699940 -0.630094 -0.096129
-0.731299 -0.642633 -0.100436
-0.731299 -0.655172 -0.100436
-0.731299 -0.667712 -0.100436
-0.731299 -0.680251 -0.100436
-0.731299 -0.692790 -0.100436
-0.731299 -0.705329 -0.100436
-0.699940 -0.717868 -0.096129
-0.699940 -0.730407 -0.096129
-0.699940 -0.742947 -0.096129
-0.699940 -0.755486 -0.096129
-0.699940 -0.768025 -0.096129
-0.699940 -0.780564 -0.096129
-0.699940 -0.793103 -0.096129
-0.668582 -0.805643 -0.091822
-0.668582 -0.818182 -0.091822
-0.668582 -0.830721 -0.091822
-0.668582 -0.843260 -0.091822
-0.668582 -0.855799 -0.091822
-0.668582 -0.868339 -0.091822
-0.699940 -0.880878 -0.096129
-0.699940 -0.893417 -0.096129
-0.699940 -0.905956 -0.096129
-0.699940 -0.918495 -0.096129
-0.699940 -0.931034 -0.096129
-0.699940 -0.943574 -0.096129
-0.699940 -0.956113 -0.096129
-0.699940 -0.968652 -0.096129
-0.699940 -0.981191 -0.096129
-0.699940 -0.993730 -0.096129
-0.699940 -1.006270 -0.096129
-0.699940 -1.018809 -0.096129
-0.699940 -1.031348 -0.096129
-0.668582 -1.043887 -0.091822
-0.699940 -1.056426 -0.096129
-0.699940 -1.068965 -0.096129
-0.699940 -1.081505 -0.096129
-0.668582 -1.094044 -0.091822
-0.668582 -1.106583 -0.091822
-0.668582 -1.119122 -0.091822
-0.668582 -1.131661 -0.091822
-0.668582 -1.144201 -0.091822
-0.668582 -1.156740 -0.091822
-0.668582 -1.169279 -0.091822
-0.637224 -1.181818 -0.087515
-0.637224 -1.194357 -0.087515
-0.668582 -1.206897 -0.091822
-0.668582 -1.219436 -0.091822
-0.637224 -1.231975 -0.087515
-0.637224 -1.244514 -0.087515
-0.605866 -1.257053 -0.083209
