-0.207266 -0.097724 -0.214052
-0.216130 -0.103703 -0.221254
-0.216127 -0.109693 -0.221391
-0.216124 -0.115682 -0.221527
-0.216121 -0.121670 -0.221663
-0.216118 -0.127657 -0.221799
-0.216115 -0.133644 -0.221935
-0.216112 -0.139629 -0.222071
-0.216108 -0.145613 -0.222207
-0.216105 -0.151596 -0.222343
-0.207240 -0.157591 -0.215417
-0.207237 -0.163573 -0.215553
-0.207235 -0.169553 -0.215690
-0.207232 -0.175533 -0.215826
-0.207229 -0.181511 -0.215962
-0.207227 -0.187489 -0.216099
-0.207225 -0.193466 -0.216235
-0.207222 -0.199442 -0.216372
-0.207220 -0.205417 -0.216508
-0.207218 -0.211392 -0.216645
-0.207217 -0.217366 -0.216782
-0.207215 -0.223340 -0.216919
-0.207214 -0.229312 -0.217056
-0.207212 -0.235284 -0.217193
-0.207212 -0.241256 -0.217331
-0.207211 -0.247227 -0.217469
-0.207211 -0.253198 -0.217606
-0.207211 -0.259168 -0.217745
-0.207211 -0.265138 -0.217883
-0.207212 -0.271108 -0.218022
-0.207213 -0.277078 -0.218161
-0.224918 -0.283026 -0.232408
-0.304557 -0.288899 -0.296010
-0.313403 -0.294862 -0.303198
-0.313404 -0.300836 -0.303337
-0.313405 -0.306810 -0.303476
-0.313407 -0.312785 -0.303616
-0.304564 -0.318769 -0.296708
-0.278028 -0.324769 -0.275699
-0.198393 -0.330810 -0.212375
-0.180698 -0.336793 -0.198412
-0.180705 -0.342763 -0.198557
-0.180713 -0.348734 -0.198701
-0.180722 -0.354705 -0.198846
-0.189581 -0.360672 -0.206044
-0.233846 -0.372602 -0.241596
-0.233856 -0.378580 -0.241743
-0.031725 0.335519 -0.060199
-0.031753 0.329501 -0.060353
-0.041022 0.323478 -0.067145
-0.041049 0.317458 -0.067300
-0.050318 0.311434 -0.074092
-0.050346 0.305413 -0.074247
-0.059615 0.299387 -0.081039
-0.059643 0.293364 -0.081194
-0.059671 0.287341 -0.081348
-0.050456 0.281319 -0.074863
-0.050483 0.275294 -0.075016
-0.050510 0.269268 -0.075170
-0.059779 0.263240 -0.081963
-0.050563 0.257215 -0.075476
-0.050588 0.251188 -0.075629
-0.050614 0.245161 -0.075782
-0.050640 0.239133 -0.075935
-0.050666 0.233104 -0.076088
-0.050691 0.227076 -0.076240
-0.050716 0.221047 -0.076392
-0.050740 0.215018 -0.076544
-0.050765 0.208988 -0.076697
-0.050789 0.202959 -0.076848
-0.041568 0.196930 -0.070359
-0.041592 0.190900 -0.070510
-0.041616 0.184870 -0.070661
-0.041639 0.178841 -0.070813
-0.041663 0.172811 -0.070964
-0.041685 0.166781 -0.071115
-0.050953 0.160752 -0.077907
-0.069464 0.154725 -0.091338
-0.069486 0.148696 -0.091488
-0.087991 0.142670 -0.104917
-0.106493 0.136646 -0.118342
-0.115752 0.130621 -0.125127
-0.125009 0.124597 -0.131911
-0.125028 0.118572 -0.132060
-0.134283 0.112549 -0.138842
-0.143536 0.106528 -0.145623
-0.143554 0.100505 -0.145771
-0.152804 0.094485 -0.152550
-0.152821 0.088463 -0.152696
-0.162068 0.082446 -0.159473
-0.162085 0.076425 -0.159619
-0.171329 0.070411 -0.166394
-0.171344 0.064392 -0.166539
-0.180585 0.058379 -0.173311
-0.180599 0.052362 -0.173455
-0.189837 0.046352 -0.180225
-0.189850 0.040337 -0.180369
-0.199084 0.034329 -0.187137
-0.199096 0.028316 -0.187279
-0.199107 0.022303 -0.187421
-0.208338 0.016300 -0.194186
-0.208348 0.010289 -0.194327
-0.217575 0.004288 -0.201089
-0.217584 -0.001720 -0.201230
-0.217593 -0.007728 -0.201370
-0.217601 -0.013735 -0.201510
-0.217609 -0.019741 -0.201649
-0.217617 -0.025746 -0.201788
-0.226838 -0.031739 -0.208546
-0.226844 -0.037741 -0.208684
-0.226851 -0.043743 -0.208823
-0.226856 -0.049744 -0.208961
-0.226862 -0.055743 -0.209099
-0.226868 -0.061742 -0.209236
-0.226873 -0.067739 -0.209374
-0.226878 -0.073736 -0.209511
-0.226883 -0.079731 -0.209648
-0.226887 -0.085726 -0.209785
-0.226892 -0.091719 -0.209922
-0.226896 -0.097711 -0.210058
-0.226900 -0.103703 -0.210195
-0.226904 -0.109693 -0.210331
-0.226908 -0.115682 -0.210467
-0.226912 -0.121670 -0.210603
-0.226916 -0.127657 -0.210740
-0.226919 -0.133644 -0.210876
-0.226923 -0.139629 -0.211012
-0.226926 -0.145613 -0.211147
-0.226930 -0.151596 -0.211283
-0.226933 -0.157578 -0.211419
-0.226937 -0.163559 -0.211555
-0.226941 -0.169540 -0.211691
-0.226944 -0.175519 -0.211827
-0.226948 -0.181498 -0.211963
-0.226952 -0.187476 -0.212099
-0.226956 -0.193453 -0.212235
-0.217760 -0.199442 -0.205763
-0.217765 -0.205417 -0.205899
-0.217770 -0.211392 -0.206036
-0.217775 -0.217366 -0.206173
-0.217780 -0.223340 -0.206310
-0.226983 -0.229300 -0.213053
-0.226988 -0.235272 -0.213190
-0.226993 -0.241244 -0.213327
-0.226999 -0.247216 -0.213464
-0.227005 -0.253187 -0.213602
-0.227012 -0.259157 -0.213739
-0.227019 -0.265127 -0.213877
-0.227026 -0.271097 -0.214016
-0.227034 -0.277067 -0.214154
-0.227042 -0.283037 -0.214293
-0.236242 -0.288996 -0.221035
-0.337327 -0.294851 -0.293781
-0.337334 -0.300826 -0.293920
-0.337343 -0.306801 -0.294059
-0.337352 -0.312776 -0.294199
-0.337362 -0.318752 -0.294340
-0.319000 -0.324744 -0.281282
-0.300637 -0.330736 -0.268225
-0.199564 -0.336787 -0.195752
-0.190387 -0.342763 -0.189293
-0.190402 -0.348734 -0.189437
-0.190418 -0.354705 -0.189581
-0.190435 -0.360677 -0.189726
-0.034690 0.335519 -0.058541
-0.034725 0.329501 -0.058694
-0.044321 0.323478 -0.065015
-0.044356 0.317458 -0.065168
-0.053952 0.311434 -0.071489
-0.053988 0.305413 -0.071642
-0.063584 0.299387 -0.077964
-0.063620 0.293364 -0.078117
-0.063655 0.287341 -0.078269
-0.054128 0.281319 -0.072252
-0.054163 0.275294 -0.072404
-0.054197 0.269268 -0.072556
-0.063794 0.263240 -0.078878
-0.063828 0.257213 -0.079030
-0.063862 0.251186 -0.079182
-0.054333 0.245161 -0.073162
-0.054366 0.239133 -0.073314
-0.054399 0.233104 -0.073465
-0.054432 0.227076 -0.073616
-0.054464 0.221047 -0.073767
-0.054496 0.215018 -0.073917
-0.044964 0.208989 -0.067896
-0.054560 0.202959 -0.074218
-0.045027 0.196930 -0.068197
-0.054624 0.190900 -0.074519
-0.045090 0.184870 -0.068497
-0.045121 0.178841 -0.068647
-0.045151 0.172811 -0.068797
-0.054747 0.166782 -0.075118
-0.054777 0.160752 -0.075267
-0.064371 0.154724 -0.081588
-0.083526 0.148697 -0.094078
-0.093117 0.142670 -0.100396
-0.121823 0.136647 -0.119048
-0.121851 0.130621 -0.119196
-0.131435 0.124597 -0.125510
-0.131462 0.118572 -0.125657
-0.141044 0.112549 -0.131969
-0.150623 0.106528 -0.138280
-0.150649 0.100505 -0.138426
-0.160225 0.094485 -0.144735
-0.160250 0.088463 -0.144881
-0.169823 0.082446 -0.151188
-0.169847 0.076425 -0.151333
-0.179418 0.070411 -0.157638
-0.188986 0.064398 -0.163941
-0.189008 0.058379 -0.164085
-0.198573 0.052369 -0.170386
-0.198593 0.046352 -0.170529
-0.208155 0.040344 -0.176828
-0.208174 0.034329 -0.176970
-0.217732 0.028324 -0.183267
-0.217750 0.022311 -0.183408
-0.217767 0.016300 -0.183549
-0.227322 0.010298 -0.189843
-0.227338 0.004288 -0.189983
-0.227354 -0.001720 -0.190123
-0.236904 -0.007718 -0.196414
-0.236918 -0.013724 -0.196553
-0.236933 -0.019730 -0.196691
-0.236947 -0.025735 -0.196830
-0.236961 -0.031739 -0.196968
-0.236974 -0.037741 -0.197106
-0.236987 -0.043743 -0.197244
-0.237000 -0.049744 -0.197381
-0.237013 -0.055743 -0.197519
-0.237025 -0.061742 -0.197656
-0.237037 -0.067739 -0.197793
-0.237049 -0.073736 -0.197930
-0.237061 -0.079731 -0.198066
-0.237072 -0.085726 -0.198203
-0.237083 -0.091719 -0.198339
-0.237094 -0.097711 -0.198475
-0.237105 -0.103703 -0.198611
-0.237116 -0.109693 -0.198748
-0.237127 -0.115682 -0.198883
-0.237138 -0.121670 -0.199019
-0.237148 -0.127657 -0.199155
-0.237158 -0.133644 -0.199291
-0.237169 -0.139629 -0.199426
-0.237179 -0.145613 -0.199562
-0.237189 -0.151596 -0.199697
-0.237200 -0.157578 -0.199833
-0.237210 -0.163559 -0.199968
-0.237220 -0.169540 -0.200104
-0.237231 -0.175519 -0.200240
-0.237241 -0.181498 -0.200375
-0.237252 -0.187476 -0.200511
-0.237263 -0.193453 -0.200646
-0.237273 -0.199429 -0.200782
-0.237284 -0.205405 -0.200918
-0.237296 -0.211380 -0.201054
-0.237307 -0.217354 -0.201190
-0.237318 -0.223327 -0.201326
-0.237330 -0.229300 -0.201462
-0.237342 -0.235272 -0.201599
-0.237355 -0.241244 -0.201735
-0.237367 -0.247216 -0.201872
-0.237381 -0.253187 -0.202009
-0.237394 -0.259157 -0.202146
-0.237408 -0.265127 -0.202284
-0.246933 -0.271086 -0.208559
-0.246947 -0.277057 -0.208696
-0.246962 -0.283026 -0.208834
-0.246977 -0.288996 -0.208972
-0.256502 -0.294956 -0.215247
-0.361083 -0.300815 -0.282854
-0.361099 -0.306791 -0.282993
-0.361115 -0.312767 -0.283132
-0.361132 -0.318743 -0.283272
-0.361150 -0.324720 -0.283413
-0.332656 -0.330720 -0.265156
-0.313665 -0.336711 -0.253031
-0.209104 -0.342757 -0.185693
-0.209126 -0.348728 -0.185836
-0.209149 -0.354700 -0.185980
-0.218681 -0.360668 -0.192259
-0.209197 -0.366646 -0.186268
-0.037567 0.335519 -0.056737
-0.037610 0.329501 -0.056888
-0.047509 0.323478 -0.062723
-0.047553 0.317458 -0.062873
-0.057452 0.311434 -0.068708
-0.057495 0.305413 -0.068859
-0.067395 0.299387 -0.074694
-0.067438 0.293364 -0.074845
-0.067481 0.287341 -0.074995
-0.057666 0.281319 -0.069461
-0.057708 0.275294 -0.069611
-0.057750 0.269268 -0.069761
-0.057792 0.263242 -0.069911
-0.067692 0.257213 -0.075747
-0.067734 0.251186 -0.075897
-0.057915 0.245161 -0.070360
-0.057956 0.239133 -0.070510
-0.057997 0.233104 -0.070659
-0.058037 0.227076 -0.070808
-0.058077 0.221047 -0.070957
-0.058117 0.215018 -0.071106
-0.058156 0.208988 -0.071255
-0.058196 0.202959 -0.071404
-0.048374 0.196930 -0.065865
-0.058274 0.190900 -0.071701
-0.048451 0.184870 -0.066162
-0.048490 0.178841 -0.066310
-0.058389 0.172811 -0.072145
-0.058427 0.166782 -0.072293
-0.068324 0.160753 -0.078127
-0.078221 0.154725 -0.083960
-0.088116 0.148697 -0.089793
-0.098010 0.142670 -0.095624
-0.127611 0.136647 -0.112821
-0.127646 0.130621 -0.112967
-0.137534 0.124597 -0.118795
-0.147419 0.118574 -0.124622
-0.147453 0.112549 -0.124767
-0.157335 0.106528 -0.130592
-0.157368 0.100505 -0.130737
-0.167247 0.094485 -0.136560
-0.167279 0.088463 -0.136705
-0.177156 0.082446 -0.142526
-0.187030 0.076431 -0.148346
-0.187060 0.070411 -0.148489
-0.196931 0.064398 -0.154308
-0.206799 0.058386 -0.160124
-0.206827 0.052369 -0.160266
-0.206854 0.046352 -0.160408
-0.216718 0.040344 -0.166222
-0.226580 0.034337 -0.172035
-0.226605 0.028324 -0.172175
-0.236463 0.022320 -0.177985
-0.236487 0.016309 -0.178125
-0.236511 0.010298 -0.178264
-0.236534 0.004288 -0.178403
-0.236557 -0.001720 -0.178542
-0.246409 -0.007718 -0.184349
-0.246430 -0.013724 -0.184487
-0.246452 -0.019730 -0.184624
-0.246473 -0.025735 -0.184762
-0.256319 -0.031727 -0.190566
-0.256339 -0.037730 -0.190703
-0.256359 -0.043731 -0.190839
-0.256378 -0.049731 -0.190976
-0.256397 -0.055731 -0.191112
-0.256416 -0.061729 -0.191248
-0.256434 -0.067727 -0.191384
-0.256452 -0.073723 -0.191520
-0.256470 -0.079718 -0.191655
-0.256488 -0.085713 -0.191791
-0.256505 -0.091706 -0.191926
-0.256523 -0.097698 -0.192061
-0.256540 -0.103689 -0.192197
-0.256557 -0.109679 -0.192332
-0.256574 -0.115669 -0.192466
-0.256590 -0.121657 -0.192601
-0.256607 -0.127644 -0.192736
-0.256624 -0.133630 -0.192871
-0.256640 -0.139615 -0.193005
-0.256657 -0.145599 -0.193140
-0.256673 -0.151582 -0.193274
-0.256690 -0.157565 -0.193409
-0.256707 -0.163546 -0.193543
-0.256723 -0.169526 -0.193678
-0.256740 -0.175506 -0.193812
-0.256756 -0.181485 -0.193947
-0.256773 -0.187463 -0.194082
-0.256790 -0.193440 -0.194216
-0.256807 -0.199416 -0.194351
-0.256824 -0.205392 -0.194486
-0.256842 -0.211367 -0.194621
-0.256860 -0.217341 -0.194756
-0.256877 -0.223315 -0.194891
-0.256896 -0.229288 -0.195026
-0.256914 -0.235260 -0.195161
-0.256933 -0.241232 -0.195297
-0.256952 -0.247204 -0.195433
-0.256971 -0.253175 -0.195569
-0.256991 -0.259146 -0.195705
-0.257011 -0.265116 -0.195841
-0.257032 -0.271086 -0.195978
-0.257053 -0.277057 -0.196115
-0.257074 -0.283026 -0.196252
-0.257096 -0.288996 -0.196389
-0.257119 -0.294966 -0.196527
-0.276748 -0.300917 -0.207972
-0.394363 -0.306772 -0.275923
-0.394386 -0.312749 -0.276061
-0.394411 -0.318726 -0.276200
-0.384639 -0.324712 -0.270690
-0.384666 -0.330691 -0.270830
-0.355298 -0.336690 -0.254019
-0.335727 -0.342680 -0.242857
-0.237744 -0.348717 -0.186477
-0.227971 -0.354695 -0.180965
-0.228001 -0.360668 -0.181108
-0.228033 -0.366642 -0.181251
-0.040351 0.335519 -0.054792
-0.040402 0.329501 -0.054941
-0.050580 0.323478 -0.060274
-0.050630 0.317458 -0.060422
-0.060809 0.311434 -0.065756
-0.060860 0.305413 -0.065905
-0.071038 0.299387 -0.071238
-0.071089 0.293364 -0.071387
-0.071139 0.287341 -0.071535
-0.071189 0.281316 -0.071683
-0.061110 0.275294 -0.066645
-0.061159 0.269268 -0.066793
-0.061208 0.263242 -0.066941
-0.071387 0.257213 -0.072275
-0.071436 0.251186 -0.072422
-0.071485 0.245159 -0.072570
-0.061402 0.239133 -0.067530
-0.061450 0.233104 -0.067677
-0.061498 0.227076 -0.067824
-0.061545 0.221047 -0.067971
-0.061592 0.215018 -0.068118
-0.061639 0.208988 -0.068265
-0.051553 0.202959 -0.063223
-0.061732 0.196929 -0.068557
-0.061779 0.190900 -0.068704
-0.051692 0.184870 -0.063662
-0.051738 0.178841 -0.063808
-0.051783 0.172811 -0.063954
-0.061961 0.166782 -0.069288
-0.072138 0.160753 -0.074620
-0.082313 0.154725 -0.079953
-0.082357 0.148696 -0.080098
-0.112787 0.142671 -0.095800
-0.133081 0.136647 -0.106313
-0.133124 0.130621 -0.106458
-0.143290 0.124597 -0.111785
-0.153453 0.118574 -0.117111
-0.163615 0.112552 -0.122436
-0.163655 0.106528 -0.122579
-0.173814 0.100508 -0.127903
-0.173853 0.094485 -0.128045
-0.184008 0.088468 -0.133368
-0.184046 0.082446 -0.133509
-0.194199 0.076431 -0.138830
-0.204348 0.070417 -0.144149
-0.204385 0.064398 -0.144289
-0.214531 0.058386 -0.149607
-0.214566 0.052369 -0.149747
-0.224709 0.046359 -0.155062
-0.234849 0.040352 -0.160376
-0.234881 0.034337 -0.160515
-0.245018 0.028333 -0.165827
-0.245049 0.022320 -0.165965
-0.255182 0.016318 -0.171275
-0.255212 0.010308 -0.171413
-0.255242 0.004298 -0.171550
-0.255271 -0.001710 -0.171687
-0.265398 -0.007707 -0.176994
-0.265426 -0.013714 -0.177131
-0.265454 -0.019719 -0.177267
-0.265481 -0.025724 -0.177403
-0.265508 -0.031727 -0.177539
-0.265535 -0.037730 -0.177675
-0.265562 -0.043731 -0.177810
-0.265587 -0.049731 -0.177946
-0.265613 -0.055731 -0.178081
-0.265639 -0.061729 -0.178216
-0.265664 -0.067727 -0.178351
-0.265689 -0.073723 -0.178485
-0.275804 -0.079705 -0.183786
-0.275828 -0.085699 -0.183920
-0.275852 -0.091692 -0.184054
-0.275875 -0.097685 -0.184188
-0.275899 -0.103676 -0.184322
-0.275922 -0.109666 -0.184456
-0.275945 -0.115655 -0.184589
-0.275968 -0.121643 -0.184723
-0.275991 -0.127630 -0.184856
-0.276014 -0.133616 -0.184990
-0.276036 -0.139601 -0.185123
-0.276059 -0.145585 -0.185256
-0.276082 -0.151568 -0.185389
-0.276105 -0.157551 -0.185523
-0.276127 -0.163532 -0.185656
-0.276150 -0.169512 -0.185789
-0.276173 -0.175492 -0.185923
-0.276195 -0.181471 -0.186056
-0.276219 -0.187449 -0.186189
-0.276242 -0.193426 -0.186323
-0.276265 -0.199403 -0.186456
-0.276288 -0.205378 -0.186590
-0.276312 -0.211353 -0.186723
-0.276336 -0.217328 -0.186857
-0.276360 -0.223302 -0.186991
-0.276384 -0.229275 -0.187125
-0.276409 -0.235247 -0.187259
-0.276434 -0.241220 -0.187393
-0.276460 -0.247192 -0.187527
-0.276485 -0.253163 -0.187662
-0.276511 -0.259134 -0.187797
-0.276538 -0.265105 -0.187932
-0.276565 -0.271075 -0.188067
-0.276592 -0.277046 -0.188203
-0.276620 -0.283016 -0.188338
-0.276649 -0.288986 -0.188474
-0.276678 -0.294956 -0.188610
-0.276707 -0.300927 -0.188747
-0.296882 -0.306878 -0.199197
-0.417736 -0.312740 -0.261193
-0.417768 -0.318718 -0.261331
-0.417800 -0.324697 -0.261469
-0.417834 -0.330677 -0.261608
-0.407802 -0.336663 -0.256593
-0.387701 -0.342656 -0.246424
-0.367600 -0.348647 -0.236254
-0.236716 -0.354695 -0.169365
-0.246826 -0.360663 -0.174663
-0.236792 -0.366642 -0.169647
-0.246903 -0.372613 -0.174945
0.025345 0.347553 0.062829
0.025357 0.341536 0.062985
0.025369 0.335519 0.063141
0.033890 0.329497 0.070850
0.042411 0.323475 0.078559
0.042423 0.317455 0.078716
0.050944 0.311431 0.086425
0.050957 0.305409 0.086581
0.050969 0.299387 0.086738
0.042471 0.293367 0.079341
0.042482 0.287344 0.079497
0.042493 0.281319 0.079652
0.051015 0.275291 0.087363
0.042515 0.269268 0.079963
0.034014 0.263244 0.072563
0.034024 0.257217 0.072718
0.034034 0.251190 0.072873
0.034044 0.245162 0.073028
0.034053 0.239134 0.073182
0.034063 0.233106 0.073336
0.034072 0.227077 0.073491
0.025567 0.221049 0.066088
0.025576 0.215019 0.066241
0.025585 0.208990 0.066395
0.034107 0.202959 0.074105
0.034116 0.196930 0.074259
0.042637 0.190900 0.081969
0.042645 0.184870 0.082122
0.051166 0.178840 0.089830
0.059686 0.172811 0.097538
0.059693 0.166782 0.097691
0.068211 0.160754 0.105397
0.068218 0.154725 0.105549
0.076735 0.148698 0.113254
0.102266 0.142674 0.136062
0.110777 0.136649 0.143762
0.119288 0.130625 0.151462
0.119292 0.124599 0.151612
0.127800 0.118577 0.159309
0.127803 0.112552 0.159458
0.136309 0.106532 0.167153
0.136311 0.100508 0.167301
0.144814 0.094490 0.174994
0.144816 0.088468 0.175141
0.153316 0.082451 0.182831
0.161814 0.076436 0.190520
0.161814 0.070417 0.190665
0.161814 0.064398 0.190811
0.170308 0.058386 0.198496
0.170307 0.052369 0.198640
0.170305 0.046352 0.198785
0.178796 0.040344 0.206466
0.178794 0.034329 0.206610
0.178790 0.028316 0.206752
0.187278 0.022311 0.214431
0.195762 0.016309 0.222107
0.195758 0.010298 0.222248
0.204239 0.004298 0.229922
0.204233 -0.001710 0.230062
0.204227 -0.007718 0.230202
0.204221 -0.013724 0.230342
0.204214 -0.019730 0.230481
0.204207 -0.025735 0.230620
0.212682 -0.031727 0.238288
0.212674 -0.037730 0.238426
0.212666 -0.043731 0.238564
0.212657 -0.049731 0.238701
0.212648 -0.055731 0.238839
0.212639 -0.061729 0.238976
0.212630 -0.067727 0.239112
0.212620 -0.073723 0.239249
0.204131 -0.079731 0.231859
0.204121 -0.085726 0.231996
0.204112 -0.091719 0.232132
0.204102 -0.097711 0.232269
0.204092 -0.103703 0.232405
0.204082 -0.109693 0.232541
0.212549 -0.115669 0.240201
0.212538 -0.121657 0.240336
0.212527 -0.127644 0.240472
0.212516 -0.133630 0.240607
0.204030 -0.139629 0.233220
0.204020 -0.145613 0.233355
0.212484 -0.151582 0.241012
0.212473 -0.157565 0.241147
0.212462 -0.163546 0.241282
0.212451 -0.169526 0.241417
0.212440 -0.175506 0.241553
0.212429 -0.181485 0.241688
0.212419 -0.187463 0.241823
0.212408 -0.193440 0.241958
0.212398 -0.199416 0.242094
0.195447 -0.205417 0.227193
0.203908 -0.211380 0.234848
0.203898 -0.217354 0.234984
0.195419 -0.223340 0.227603
0.195411 -0.229312 0.227740
0.195402 -0.235284 0.227877
0.195394 -0.241256 0.228014
0.186918 -0.247239 0.220635
0.195379 -0.253198 0.228289
0.195371 -0.259168 0.228427
0.229228 -0.265093 0.258621
0.229220 -0.271064 0.258759
0.279986 -0.276965 0.303961
0.279977 -0.282938 0.304098
0.279970 -0.288911 0.304236
0.279963 -0.294883 0.304374
0.271496 -0.300867 0.297004
0.254568 -0.306859 0.282124
0.220714 -0.312868 0.252221
0.152994 -0.318899 0.192258
0.152993 -0.324867 0.192402
0.152992 -0.330836 0.192546
0.152991 -0.336805 0.192690
0.152992 -0.342774 0.192835
0.032547 0.347556 0.047747
0.032604 0.341540 0.047892
0.043035 0.335519 0.052711
0.053466 0.329497 0.057530
0.053524 0.323478 0.057675
0.063956 0.317455 0.062494
0.064014 0.311434 0.062640
0.064072 0.305413 0.062786
0.074504 0.299387 0.067605
0.074562 0.293364 0.067751
0.074620 0.287341 0.067896
0.074677 0.281316 0.068042
0.074735 0.275291 0.068187
0.074791 0.269266 0.068333
0.064472 0.263242 0.063803
0.064528 0.257215 0.063948
0.054206 0.251190 0.059418
0.054262 0.245162 0.059562
0.054317 0.239134 0.059707
0.054372 0.233106 0.059851
0.044048 0.227078 0.055320
0.054481 0.221048 0.060140
0.054536 0.215018 0.060284
0.054590 0.208989 0.060428
0.054644 0.202959 0.060572
0.065076 0.196929 0.065392
0.065130 0.190900 0.065536
0.065183 0.184870 0.065679
0.065236 0.178840 0.065823
0.065289 0.172811 0.065966
0.086096 0.166782 0.075460
0.106899 0.160755 0.084952
0.106951 0.154726 0.085095
0.117376 0.148699 0.089911
0.138170 0.142674 0.099399
0.148590 0.136649 0.104213
0.159008 0.130625 0.109026
0.169424 0.124602 0.113838
0.169472 0.118577 0.113979
0.179885 0.112556 0.118790
0.190296 0.106535 0.123599
0.190342 0.100512 0.123740
0.200750 0.094494 0.128548
0.211154 0.088477 0.133355
0.211199 0.082456 0.133494
0.221600 0.076442 0.138300
0.231999 0.070428 0.143104
0.242395 0.064417 0.147907
0.242436 0.058399 0.148045
0.252828 0.052390 0.152846
0.263218 0.046382 0.157646
0.263257 0.040368 0.157783
0.273643 0.034363 0.162581
0.273681 0.028350 0.162717
0.284062 0.022348 0.167514
0.284099 0.016337 0.167649
0.284135 0.010328 0.167785
0.294512 0.004329 0.172579
0.294547 -0.001678 0.172714
0.294581 -0.007685 0.172849
0.294615 -0.013691 0.172983
0.294649 -0.019696 0.173118
0.294682 -0.025700 0.173252
0.294715 -0.031703 0.173386
0.305084 -0.037693 0.178176
0.305115 -0.043694 0.178309
0.305147 -0.049693 0.178443
0.305178 -0.055692 0.178576
0.305208 -0.061690 0.178709
0.305239 -0.067687 0.178841
0.305269 -0.073683 0.178974
0.305298 -0.079678 0.179106
0.305328 -0.085672 0.179239
0.305357 -0.091665 0.179371
0.305387 -0.097657 0.179503
0.305416 -0.103647 0.179635
0.305444 -0.109637 0.179767
0.305473 -0.115626 0.179899
0.305502 -0.121614 0.180030
0.305530 -0.127601 0.180162
0.305559 -0.133587 0.180294
0.305587 -0.139572 0.180425
0.305615 -0.145556 0.180557
0.305643 -0.151539 0.180688
0.305672 -0.157522 0.180820
0.305700 -0.163503 0.180951
0.305728 -0.169484 0.181083
0.305757 -0.175463 0.181214
0.305785 -0.181442 0.181346
0.305814 -0.187420 0.181477
0.305843 -0.193398 0.181609
0.305872 -0.199375 0.181741
0.305901 -0.205351 0.181872
0.305930 -0.211326 0.182004
0.316280 -0.217287 0.186786
0.316310 -0.223261 0.186917
0.306020 -0.229248 0.182400
0.316370 -0.235208 0.187182
0.316400 -0.241181 0.187314
0.316431 -0.247154 0.187446
0.316462 -0.253126 0.187579
0.316494 -0.259098 0.187712
0.316526 -0.265069 0.187845
0.316559 -0.271041 0.187978
0.306275 -0.277023 0.183464
0.306309 -0.282994 0.183598
0.306344 -0.288965 0.183732
0.316695 -0.294926 0.188514
0.337362 -0.300877 0.197943
0.409589 -0.306781 0.230599
0.419937 -0.312749 0.235379
0.419975 -0.318726 0.235515
0.420015 -0.324705 0.235652
0.409743 -0.330691 0.231143
0.389159 -0.336683 0.221989
0.244786 -0.342751 0.157067
0.244829 -0.348723 0.157205
0.255189 -0.354690 0.161991
0.255234 -0.360663 0.162130
-0.043035 0.335519 -0.052711
-0.043093 0.329501 -0.052856
-0.053524 0.323478 -0.057675
-0.053582 0.317458 -0.057821
-0.064014 0.311434 -0.062640
-0.064072 0.305413 -0.062786
-0.074504 0.299387 -0.067605
-0.074562 0.293364 -0.067751
-0.074620 0.287341 -0.067896
-0.074677 0.281316 -0.068042
-0.064359 0.275294 -0.063513
-0.064416 0.269268 -0.063658
-0.064472 0.263242 -0.063803
-0.074904 0.257213 -0.068623
-0.074961 0.251186 -0.068768
-0.064640 0.245161 -0.064238
-0.064695 0.239133 -0.064382
-0.075128 0.233103 -0.069202
-0.064805 0.227076 -0.064671
-0.064860 0.221047 -0.064816
-0.064914 0.215018 -0.064960
-0.064969 0.208988 -0.065104
-0.065022 0.202959 -0.065248
-0.054697 0.196930 -0.060716
-0.065130 0.190900 -0.065536
-0.054804 0.184870 -0.061003
-0.065236 0.178840 -0.065823
-0.065289 0.172811 -0.065966
-0.065341 0.166782 -0.066110
-0.075771 0.160753 -0.070928
-0.086200 0.154725 -0.075746
-0.096627 0.148697 -0.080563
-0.117426 0.142671 -0.090053
-0.138220 0.136647 -0.099541
-0.148640 0.130623 -0.104354
-0.148689 0.124597 -0.104496
-0.159106 0.118574 -0.109309
-0.169520 0.112552 -0.114120
-0.169567 0.106528 -0.114261
-0.179979 0.100508 -0.119071
-0.190388 0.094490 -0.123880
-0.190434 0.088468 -0.124020
-0.200840 0.082451 -0.128828
-0.211243 0.076436 -0.133634
-0.211286 0.070417 -0.133773
-0.221686 0.064404 -0.138577
-0.232083 0.058392 -0.143381
-0.232125 0.052376 -0.143519
-0.242518 0.046367 -0.148321
-0.242558 0.040352 -0.148458
-0.252948 0.034346 -0.153258
-0.263334 0.028341 -0.158056
-0.263372 0.022329 -0.158193
-0.263410 0.016318 -0.158329
-0.273792 0.010318 -0.163125
-0.273828 0.004308 -0.163261
-0.273864 -0.001700 -0.163396
-0.284241 -0.007697 -0.168191
-0.284275 -0.013703 -0.168325
-0.284309 -0.019708 -0.168460
-0.284343 -0.025712 -0.168594
-0.284376 -0.031715 -0.168728
-0.284409 -0.037718 -0.168862
-0.284442 -0.043719 -0.168996
-0.284474 -0.049719 -0.169130
-0.284506 -0.055718 -0.169263
-0.294874 -0.061704 -0.174053
-0.294905 -0.067701 -0.174186
-0.294935 -0.073697 -0.174319
-0.294966 -0.079692 -0.174451
-0.294995 -0.085686 -0.174584
-0.295025 -0.091679 -0.174716
-0.295055 -0.097671 -0.174849
-0.295085 -0.103662 -0.174981
-0.305444 -0.109637 -0.179767
-0.305473 -0.115626 -0.179899
-0.305502 -0.121614 -0.180030
-0.305530 -0.127601 -0.180162
-0.305559 -0.133587 -0.180294
-0.305587 -0.139572 -0.180425
-0.305615 -0.145556 -0.180557
-0.305643 -0.151539 -0.180688
-0.305672 -0.157522 -0.180820
-0.305700 -0.163503 -0.180951
-0.305728 -0.169484 -0.181083
-0.295432 -0.175478 -0.176563
-0.295461 -0.181457 -0.176695
-0.295490 -0.187435 -0.176827
-0.295519 -0.193412 -0.176958
-0.295549 -0.199389 -0.177090
-0.295578 -0.205365 -0.177222
-0.295608 -0.211340 -0.177354
-0.295638 -0.217314 -0.177486
-0.295668 -0.223288 -0.177619
-0.295699 -0.229262 -0.177751
-0.295730 -0.235235 -0.177883
-0.295761 -0.241207 -0.178016
-0.295793 -0.247179 -0.178149
-0.306144 -0.253138 -0.182931
-0.306176 -0.259110 -0.183064
-0.306209 -0.265081 -0.183197
-0.306241 -0.271052 -0.183330
-0.306275 -0.277023 -0.183464
-0.295991 -0.283005 -0.178950
-0.296026 -0.288976 -0.179084
-0.296062 -0.294946 -0.179219
-0.296098 -0.300917 -0.179353
-0.296135 -0.306888 -0.179488
-0.316805 -0.312841 -0.188919
-0.440597 -0.318710 -0.244805
-0.440637 -0.324690 -0.244942
-0.440679 -0.330670 -0.245079
-0.440721 -0.336651 -0.245217
-0.440765 -0.342633 -0.245356
-0.420183 -0.348625 -0.236203
-0.286139 -0.354674 -0.175934
-0.265550 -0.360659 -0.166777
-0.265596 -0.366634 -0.166916
-0.046085 0.335519 -0.050066
-0.046152 0.329501 -0.050207
-0.056851 0.323478 -0.054399
-0.067549 0.317455 -0.058591
-0.067616 0.311434 -0.058733
-0.078316 0.305409 -0.062926
-0.078382 0.299387 -0.063068
-0.078449 0.293364 -0.063210
-0.078515 0.287341 -0.063351
-0.078581 0.281316 -0.063493
-0.078647 0.275291 -0.063635
-0.078712 0.269266 -0.063777
-0.078778 0.263240 -0.063918
-0.078842 0.257213 -0.064060
-0.078907 0.251186 -0.064201
-0.068336 0.245161 -0.060291
-0.068399 0.239133 -0.060432
-0.068463 0.233104 -0.060573
-0.068527 0.227076 -0.060714
-0.068590 0.221047 -0.060855
-0.068653 0.215018 -0.060996
-0.058077 0.208989 -0.057084
-0.058140 0.202959 -0.057225
-0.058202 0.196930 -0.057365
-0.058264 0.190900 -0.057506
-0.058326 0.184870 -0.057646
-0.069025 0.178840 -0.061838
-0.058448 0.172811 -0.057926
-0.047871 0.166781 -0.054014
-0.058570 0.160752 -0.058206
-0.069268 0.154723 -0.062398
-0.101235 0.148697 -0.074691
-0.122560 0.142671 -0.082931
-0.122619 0.136644 -0.083070
-0.154567 0.130623 -0.095356
-0.165251 0.124599 -0.099542
-0.175934 0.118577 -0.103728
-0.175990 0.112552 -0.103866
-0.186669 0.106532 -0.108050
-0.197346 0.100512 -0.112233
-0.197400 0.094490 -0.112371
-0.208073 0.088472 -0.116553
-0.218744 0.082456 -0.120734
-0.218796 0.076436 -0.120871
-0.229463 0.070422 -0.125050
-0.240128 0.064410 -0.129229
-0.240178 0.058392 -0.129364
-0.250839 0.052383 -0.133542
-0.250888 0.046367 -0.133677
-0.261544 0.040360 -0.137852
-0.272198 0.034354 -0.142027
-0.272245 0.028341 -0.142161
-0.272291 0.022329 -0.142295
-0.282940 0.016328 -0.146467
-0.282984 0.010318 -0.146601
-0.293629 0.004319 -0.150772
-0.293673 -0.001689 -0.150905
-0.304314 -0.007685 -0.155074
-0.314952 -0.013680 -0.159242
-0.314993 -0.019684 -0.159374
-0.315034 -0.025688 -0.159506
-0.304479 -0.031703 -0.155602
-0.315114 -0.037693 -0.159769
-0.315153 -0.043694 -0.159900
-0.315192 -0.049693 -0.160031
-0.315231 -0.055692 -0.160162
-0.325860 -0.061677 -0.164327
-0.325898 -0.067673 -0.164457
-0.315346 -0.073683 -0.160554
-0.315383 -0.079678 -0.160685
-0.326010 -0.085658 -0.164848
-0.326046 -0.091650 -0.164978
-0.326083 -0.097642 -0.165108
-0.326119 -0.103633 -0.165238
-0.326155 -0.109623 -0.165368
-0.326191 -0.115611 -0.165498
-0.326227 -0.121599 -0.165627
-0.326262 -0.127586 -0.165757
-0.326298 -0.133572 -0.165886
-0.326334 -0.139557 -0.166016
-0.326369 -0.145541 -0.166145
-0.326405 -0.151524 -0.166275
-0.326440 -0.157507 -0.166404
-0.326476 -0.163488 -0.166533
-0.326511 -0.169469 -0.166663
-0.326547 -0.175449 -0.166792
-0.326583 -0.181428 -0.166922
-0.326619 -0.187406 -0.167051
-0.326655 -0.193383 -0.167181
-0.326691 -0.199360 -0.167310
-0.326728 -0.205336 -0.167440
-0.326764 -0.211312 -0.167570
-0.326801 -0.217287 -0.167699
-0.316261 -0.223275 -0.163800
-0.316299 -0.229248 -0.163930
-0.316337 -0.235222 -0.164061
-0.316376 -0.241194 -0.164191
-0.316415 -0.247167 -0.164322
-0.316454 -0.253138 -0.164452
-0.316494 -0.259110 -0.164583
-0.327110 -0.265069 -0.168742
-0.327150 -0.271041 -0.168873
-0.316616 -0.277023 -0.164977
-0.316659 -0.282994 -0.165109
-0.316701 -0.288965 -0.165240
-0.316744 -0.294936 -0.165373
-0.327362 -0.300897 -0.169532
-0.327406 -0.306869 -0.169665
-0.327451 -0.312841 -0.169798
-0.348642 -0.318796 -0.177985
-0.464957 -0.324683 -0.222404
-0.465007 -0.330664 -0.222539
-0.465057 -0.336645 -0.222674
-0.465109 -0.342628 -0.222809
-0.454593 -0.348616 -0.218920
-0.433505 -0.354608 -0.211003
-0.306695 -0.360644 -0.162817
-0.285601 -0.366629 -0.154899
-0.285655 -0.372606 -0.155035
-0.285710 -0.378583 -0.155172
-0.285766 -0.384562 -0.155309
-0.048074 0.335519 -0.048159
-0.058934 0.329497 -0.051914
-0.059006 0.323478 -0.052053
-0.059078 0.317458 -0.052193
-0.069938 0.311434 -0.055948
-0.080799 0.305409 -0.059704
-0.080871 0.299387 -0.059843
-0.080943 0.293364 -0.059982
-0.081015 0.287341 -0.060121
-0.081087 0.281316 -0.060260
-0.081158 0.275291 -0.060399
-0.081230 0.269266 -0.060538
-0.070510 0.263242 -0.057060
-0.081371 0.257213 -0.060816
-0.081441 0.251186 -0.060954
-0.070720 0.245161 -0.057475
-0.081581 0.239131 -0.061231
-0.070859 0.233104 -0.057752
-0.070928 0.227076 -0.057890
-0.070997 0.221047 -0.058028
-0.071065 0.215018 -0.058167
-0.071134 0.208988 -0.058305
-0.071202 0.202959 -0.058443
-0.060476 0.196930 -0.054962
-0.071337 0.190900 -0.058718
-0.071404 0.184870 -0.058856
-0.060678 0.178841 -0.055375
-0.049951 0.172811 -0.051894
-0.050018 0.166781 -0.052032
-0.060878 0.160752 -0.055788
-0.071737 0.154723 -0.059543
-0.114964 0.148698 -0.074148
-0.125817 0.142671 -0.077901
-0.125881 0.136644 -0.078038
-0.158300 0.130623 -0.089020
-0.169145 0.124599 -0.092771
-0.179988 0.118577 -0.096521
-0.180050 0.112552 -0.096656
-0.190890 0.106532 -0.100405
-0.201727 0.100512 -0.104153
-0.212562 0.094494 -0.107900
-0.212621 0.088472 -0.108034
-0.223452 0.082456 -0.111780
-0.234281 0.076442 -0.115525
-0.234337 0.070422 -0.115659
-0.245163 0.064410 -0.119402
-0.255984 0.058399 -0.123145
-0.256039 0.052383 -0.123278
-0.266857 0.046374 -0.127019
-0.277672 0.040368 -0.130759
-0.277724 0.034354 -0.130892
-0.288535 0.028350 -0.134630
-0.288586 0.022339 -0.134762
-0.299393 0.016337 -0.138499
-0.299443 0.010328 -0.138631
-0.310246 0.004329 -0.142367
-0.310294 -0.001678 -0.142497
-0.310342 -0.007685 -0.142628
-0.321140 -0.013680 -0.146362
-0.321186 -0.019684 -0.146492
-0.321232 -0.025688 -0.146622
-0.321278 -0.031691 -0.146752
-0.332070 -0.037680 -0.150484
-0.332115 -0.043681 -0.150614
-0.332158 -0.049680 -0.150743
-0.332202 -0.055679 -0.150872
-0.332245 -0.061677 -0.151001
-0.332288 -0.067673 -0.151130
-0.332331 -0.073669 -0.151259
-0.332373 -0.079664 -0.151388
-0.332415 -0.085658 -0.151516
-0.332457 -0.091650 -0.151645
-0.332499 -0.097642 -0.151773
-0.332541 -0.103633 -0.151901
-0.332582 -0.109623 -0.152029
-0.332623 -0.115611 -0.152158
-0.332664 -0.121599 -0.152286
-0.332705 -0.127586 -0.152413
-0.343484 -0.133557 -0.156141
-0.343524 -0.139542 -0.156269
-0.343564 -0.145526 -0.156396
-0.343605 -0.151509 -0.156524
-0.343645 -0.157492 -0.156652
-0.343685 -0.163473 -0.156779
-0.343726 -0.169454 -0.156907
-0.343766 -0.175434 -0.157035
-0.333072 -0.181428 -0.153565
-0.333114 -0.187406 -0.153692
-0.333155 -0.193383 -0.153820
-0.333196 -0.199360 -0.153948
-0.333238 -0.205336 -0.154077
-0.333280 -0.211312 -0.154205
-0.333322 -0.217287 -0.154333
-0.333364 -0.223261 -0.154461
-0.333407 -0.229235 -0.154589
-0.333450 -0.235208 -0.154718
-0.333494 -0.241181 -0.154847
-0.333538 -0.247154 -0.154975
-0.333582 -0.253126 -0.155104
-0.333627 -0.259098 -0.155233
-0.333672 -0.265069 -0.155362
-0.333718 -0.271041 -0.155492
-0.333764 -0.277012 -0.155621
-0.333811 -0.282983 -0.155751
-0.333859 -0.288954 -0.155881
-0.333907 -0.294926 -0.156011
-0.333956 -0.300897 -0.156141
-0.334006 -0.306869 -0.156272
-0.334056 -0.312841 -0.156403
-0.344834 -0.318804 -0.160130
-0.355613 -0.324769 -0.163857
-0.473634 -0.330664 -0.203532
-0.473690 -0.336645 -0.203666
-0.473748 -0.342628 -0.203799
-0.473807 -0.348612 -0.203933
-0.473867 -0.354597 -0.204068
-0.313035 -0.360644 -0.150269
-0.291638 -0.366629 -0.143210
-0.291697 -0.372606 -0.143344
-0.291757 -0.378583 -0.143479
-0.302547 -0.384560 -0.147210
-0.050417 0.335519 -0.045700
-0.061451 0.329497 -0.048909
-0.061530 0.323478 -0.049044
-0.072564 0.317455 -0.052253
-0.072643 0.311434 -0.052389
-0.083677 0.305409 -0.055598
-0.083756 0.299387 -0.055733
-0.083835 0.293364 -0.055869
-0.083914 0.287341 -0.056004
-0.083993 0.281316 -0.056139
-0.095027 0.275289 -0.059348
-0.095105 0.269263 -0.059484
-0.095183 0.263237 -0.059619
-0.084304 0.257213 -0.056680
-0.084381 0.251186 -0.056815
-0.084458 0.245159 -0.056950
-0.073576 0.239133 -0.054010
-0.073652 0.233104 -0.054145
-0.073728 0.227076 -0.054279
-0.073804 0.221047 -0.054414
-0.073879 0.215018 -0.054548
-0.073954 0.208988 -0.054683
-0.074029 0.202959 -0.054817
-0.074104 0.196929 -0.054951
-0.074178 0.190900 -0.055085
-0.074252 0.184870 -0.055220
-0.063366 0.178841 -0.052279
-0.063439 0.172811 -0.052413
-0.063512 0.166781 -0.052547
-0.063586 0.160752 -0.052681
-0.096536 0.154725 -0.062038
-0.118521 0.148698 -0.068320
-0.129547 0.142671 -0.071527
-0.140572 0.136646 -0.074733
-0.162545 0.130623 -0.081011
-0.173564 0.124599 -0.084216
-0.184580 0.118577 -0.087420
-0.184648 0.112552 -0.087552
-0.195662 0.106532 -0.090755
-0.206673 0.100512 -0.093958
-0.206739 0.094490 -0.094090
-0.217746 0.088472 -0.097291
-0.228751 0.082456 -0.100492
-0.239753 0.076442 -0.103692
-0.239816 0.070422 -0.103822
-0.250815 0.064410 -0.107021
-0.261810 0.058399 -0.110219
-0.261871 0.052383 -0.110349
-0.272862 0.046374 -0.113546
-0.283851 0.040368 -0.116742
-0.283909 0.034354 -0.116871
-0.294894 0.028350 -0.120066
-0.294951 0.022339 -0.120195
-0.305931 0.016337 -0.123388
-0.316908 0.010338 -0.126581
-0.316963 0.004329 -0.126709
-0.327936 -0.001667 -0.129901
-0.327989 -0.007674 -0.130029
-0.328043 -0.013680 -0.130156
-0.328095 -0.019684 -0.130284
-0.328148 -0.025688 -0.130412
-0.328200 -0.031691 -0.130539
-0.339165 -0.037680 -0.133728
-0.339216 -0.043681 -0.133855
-0.339266 -0.049680 -0.133982
-0.339316 -0.055679 -0.134109
-0.339366 -0.061677 -0.134235
-0.339415 -0.067673 -0.134362
-0.339464 -0.073669 -0.134489
-0.339513 -0.079664 -0.134615
-0.339561 -0.085658 -0.134741
-0.339610 -0.091650 -0.134867
-0.339658 -0.097642 -0.134994
-0.339706 -0.103633 -0.135120
-0.339753 -0.109623 -0.135246
-0.339801 -0.115611 -0.135372
-0.339848 -0.121599 -0.135497
-0.339895 -0.127586 -0.135623
-0.339943 -0.133572 -0.135749
-0.339990 -0.139557 -0.135875
-0.340037 -0.145541 -0.136000
-0.340084 -0.151524 -0.136126
-0.340131 -0.157507 -0.136252
-0.340178 -0.163488 -0.136377
-0.340225 -0.169469 -0.136503
-0.351173 -0.175434 -0.139687
-0.351220 -0.181413 -0.139812
-0.351267 -0.187391 -0.139938
-0.351314 -0.193369 -0.140063
-0.351362 -0.199345 -0.140189
-0.351409 -0.205322 -0.140315
-0.340559 -0.211312 -0.137383
-0.340607 -0.217287 -0.137509
-0.340656 -0.223261 -0.137635
-0.340705 -0.229235 -0.137761
-0.340755 -0.235208 -0.137887
-0.340805 -0.241181 -0.138014
-0.340855 -0.247154 -0.138140
-0.340906 -0.253126 -0.138267
-0.340957 -0.259098 -0.138393
-0.341009 -0.265069 -0.138520
-0.341061 -0.271041 -0.138647
-0.341114 -0.277012 -0.138774
-0.341167 -0.282983 -0.138901
-0.341221 -0.288954 -0.139029
-0.341276 -0.294926 -0.139156
-0.341331 -0.300897 -0.139284
-0.341387 -0.306869 -0.139412
-0.352337 -0.312832 -0.142596
-0.363287 -0.318796 -0.145781
-0.461360 -0.324697 -0.173407
-0.483199 -0.330664 -0.179647
-0.483262 -0.336645 -0.179777
-0.483326 -0.342628 -0.179907
-0.483392 -0.348612 -0.180038
-0.483459 -0.354597 -0.180169
-0.483527 -0.360583 -0.180301
-0.052635 0.335519 -0.043128
-0.063814 0.329497 -0.045782
-0.063900 0.323478 -0.045913
-0.075080 0.317455 -0.048568
-0.075166 0.311434 -0.048699
-0.086347 0.305409 -0.051353
-0.086433 0.299387 -0.051485
-0.086519 0.293364 -0.051616
-0.097699 0.287338 -0.054271
-0.097785 0.281313 -0.054402
-0.097870 0.275289 -0.054533
-0.097955 0.269263 -0.054664
-0.086943 0.263240 -0.052272
-0.087027 0.257213 -0.052403
-0.087111 0.251186 -0.052534
-0.087194 0.245159 -0.052665
-0.087278 0.239131 -0.052795
-0.087361 0.233103 -0.052926
-0.076345 0.227076 -0.050533
-0.076427 0.221047 -0.050664
-0.076509 0.215018 -0.050794
-0.076591 0.208988 -0.050925
-0.076672 0.202959 -0.051055
-0.076753 0.196929 -0.051185
-0.065734 0.190900 -0.048791
-0.065815 0.184870 -0.048922
-0.065895 0.178841 -0.049052
-0.065975 0.172811 -0.049182
-0.054955 0.166781 -0.046788
-0.077235 0.160752 -0.051966
-0.088413 0.154724 -0.054620
-0.121782 0.148698 -0.062321
-0.132955 0.142671 -0.064974
-0.155217 0.136647 -0.070148
-0.166384 0.130623 -0.072800
-0.177549 0.124599 -0.075451
-0.188712 0.118577 -0.078101
-0.199872 0.112556 -0.080751
-0.199946 0.106532 -0.080880
-0.211103 0.100512 -0.083529
-0.222258 0.094494 -0.086177
-0.222330 0.088472 -0.086305
-0.233481 0.082456 -0.088953
-0.244628 0.076442 -0.091600
-0.244698 0.070422 -0.091727
-0.255842 0.064410 -0.094373
-0.266983 0.058399 -0.097018
-0.278121 0.052390 -0.099663
-0.278188 0.046374 -0.099790
-0.289322 0.040368 -0.102433
-0.289387 0.034354 -0.102560
-0.300517 0.028350 -0.105202
-0.300581 0.022339 -0.105329
-0.311706 0.016337 -0.107970
-0.322829 0.010338 -0.110611
-0.322890 0.004329 -0.110736
-0.322951 -0.001678 -0.110862
-0.323012 -0.007685 -0.110987
-0.334128 -0.013680 -0.113626
-0.334187 -0.019684 -0.113751
-0.334246 -0.025688 -0.113876
-0.334304 -0.031691 -0.114001
-0.334362 -0.037693 -0.114125
-0.334420 -0.043694 -0.114250
-0.334477 -0.049693 -0.114374
-0.334534 -0.055692 -0.114498
-0.334590 -0.061690 -0.114623
-0.334646 -0.067687 -0.114747
-0.334702 -0.073683 -0.114871
-0.334757 -0.079678 -0.114994
-0.334813 -0.085672 -0.115118
-0.334868 -0.091665 -0.115242
-0.334923 -0.097657 -0.115366
-0.334977 -0.103647 -0.115489
-0.346078 -0.109623 -0.118125
-0.346132 -0.115611 -0.118248
-0.346185 -0.121599 -0.118372
-0.346239 -0.127586 -0.118495
-0.346292 -0.133572 -0.118618
-0.346346 -0.139557 -0.118741
-0.346399 -0.145541 -0.118865
-0.346452 -0.151524 -0.118988
-0.346506 -0.157507 -0.119111
-0.346559 -0.163488 -0.119234
-0.346612 -0.169469 -0.119357
-0.346666 -0.175449 -0.119480
-0.346719 -0.181428 -0.119604
-0.346773 -0.187406 -0.119727
-0.346827 -0.193383 -0.119850
-0.346881 -0.199360 -0.119973
-0.346935 -0.205336 -0.120096
-0.346989 -0.211312 -0.120220
-0.347044 -0.217287 -0.120343
-0.347099 -0.223261 -0.120467
-0.347155 -0.229235 -0.120590
-0.347210 -0.235208 -0.120714
-0.347267 -0.241181 -0.120837
-0.347323 -0.247154 -0.120961
-0.347380 -0.253126 -0.121085
-0.347437 -0.259098 -0.121209
-0.347495 -0.265069 -0.121333
-0.347554 -0.271041 -0.121457
-0.347613 -0.277012 -0.121581
-0.358706 -0.282972 -0.124214
-0.347733 -0.288954 -0.121830
-0.358826 -0.294915 -0.124464
-0.358888 -0.300887 -0.124588
-0.358950 -0.306859 -0.124713
-0.347981 -0.312841 -0.122330
-0.370108 -0.318796 -0.127473
-0.469438 -0.324697 -0.150171
-0.491561 -0.330664 -0.155313
-0.491630 -0.336645 -0.155440
-0.480672 -0.342633 -0.153059
-0.480743 -0.348616 -0.153187
-0.480816 -0.354601 -0.153314
-0.054721 0.335519 -0.040448
-0.066019 0.329497 -0.042541
-0.066112 0.323478 -0.042668
-0.077410 0.317455 -0.044761
-0.077503 0.311434 -0.044888
-0.088802 0.305409 -0.046981
-0.088894 0.299387 -0.047108
-0.100193 0.293361 -0.049201
-0.100285 0.287338 -0.049328
-0.100377 0.281313 -0.049455
-0.100469 0.275289 -0.049582
-0.100560 0.269263 -0.049709
-0.100651 0.263237 -0.049835
-0.100742 0.257211 -0.049962
-0.089624 0.251186 -0.048122
-0.089714 0.245159 -0.048248
-0.078593 0.239133 -0.046408
-0.078682 0.233104 -0.046534
-0.078771 0.227076 -0.046661
-0.090070 0.221045 -0.048754
-0.078948 0.215018 -0.046913
-0.079036 0.208988 -0.047040
-0.079124 0.202959 -0.047166
-0.079211 0.196929 -0.047292
-0.079299 0.190900 -0.047418
-0.079386 0.184870 -0.047544
-0.079473 0.178840 -0.047670
-0.068347 0.172811 -0.045829
-0.057221 0.166781 -0.043987
-0.068520 0.160752 -0.046081
-0.079817 0.154723 -0.048174
-0.124740 0.148698 -0.056167
-0.136031 0.142671 -0.058259
-0.158524 0.136647 -0.062316
-0.169810 0.130623 -0.064407
-0.181093 0.124599 -0.066498
-0.192374 0.118577 -0.068588
-0.203653 0.112556 -0.070678
-0.203733 0.106532 -0.070803
-0.215008 0.100512 -0.072891
-0.226281 0.094494 -0.074980
-0.226359 0.088472 -0.075104
-0.237628 0.082456 -0.077192
-0.237705 0.076436 -0.077316
-0.248970 0.070422 -0.079404
-0.260232 0.064410 -0.081490
-0.260307 0.058392 -0.081614
-0.271565 0.052383 -0.083700
-0.282820 0.046374 -0.085785
-0.282893 0.040360 -0.085908
-0.294144 0.034354 -0.087993
-0.294215 0.028341 -0.088116
-0.305462 0.022339 -0.090200
-0.316705 0.016337 -0.092283
-0.316774 0.010328 -0.092405
-0.316842 0.004319 -0.092528
-0.328081 -0.001678 -0.094610
-0.328147 -0.007685 -0.094732
-0.328213 -0.013691 -0.094854
-0.339447 -0.019684 -0.096935
-0.339512 -0.025688 -0.097057
-0.339576 -0.031691 -0.097178
-0.339640 -0.037693 -0.097300
-0.339704 -0.043694 -0.097421
-0.339767 -0.049693 -0.097543
-0.339830 -0.055692 -0.097664
-0.339892 -0.061690 -0.097785
-0.339955 -0.067687 -0.097906
-0.340016 -0.073683 -0.098027
-0.340078 -0.079678 -0.098148
-0.340139 -0.085672 -0.098269
-0.340201 -0.091665 -0.098390
-0.340262 -0.097657 -0.098511
-0.340322 -0.103647 -0.098632
-0.340383 -0.109637 -0.098752
-0.340443 -0.115626 -0.098873
-0.340503 -0.121614 -0.098994
-0.340563 -0.127601 -0.099114
-0.340623 -0.133587 -0.099235
-0.340683 -0.139572 -0.099355
-0.340743 -0.145556 -0.099476
-0.340803 -0.151539 -0.099596
-0.340863 -0.157522 -0.099717
-0.340923 -0.163503 -0.099837
-0.340983 -0.169484 -0.099957
-0.341043 -0.175463 -0.100078
-0.341103 -0.181442 -0.100198
-0.341163 -0.187420 -0.100319
-0.341224 -0.193398 -0.100439
-0.341284 -0.199375 -0.100560
-0.341345 -0.205351 -0.100680
-0.341406 -0.211326 -0.100801
-0.341467 -0.217301 -0.100921
-0.352678 -0.223261 -0.102998
-0.352739 -0.229235 -0.103118
-0.352801 -0.235208 -0.103239
-0.352863 -0.241181 -0.103360
-0.352926 -0.247154 -0.103480
-0.352989 -0.253126 -0.103601
-0.353052 -0.259098 -0.103722
-0.353117 -0.265069 -0.103843
-0.353181 -0.271041 -0.103964
-0.353246 -0.277012 -0.104085
-0.353312 -0.282983 -0.104207
-0.353378 -0.288954 -0.104328
-0.353446 -0.294926 -0.104449
-0.353513 -0.300897 -0.104571
-0.364726 -0.306859 -0.106648
-0.453925 -0.312758 -0.122408
-0.453995 -0.318735 -0.122530
-0.476346 -0.324697 -0.126561
-0.487559 -0.330670 -0.128639
-0.476494 -0.336657 -0.126807
-0.476570 -0.342638 -0.126930
-0.476647 -0.348621 -0.127054
-0.056671 0.335519 -0.037667
-0.068060 0.329497 -0.039194
-0.068158 0.323478 -0.039316
-0.079547 0.317455 -0.040843
-0.090936 0.311431 -0.042370
-0.091035 0.305409 -0.042492
-0.091134 0.299387 -0.042614
-0.102523 0.293361 -0.044141
-0.102622 0.287338 -0.044263
-0.102720 0.281313 -0.044385
-0.102818 0.275289 -0.044507
-0.102915 0.269263 -0.044629
-0.103013 0.263237 -0.044751
-0.091817 0.257213 -0.043468
-0.103206 0.251184 -0.044995
-0.092009 0.245159 -0.043712
-0.092105 0.239131 -0.043834
-0.080906 0.233104 -0.042550
-0.092296 0.227074 -0.044077
-0.081096 0.221047 -0.042794
-0.081190 0.215018 -0.042916
-0.081285 0.208988 -0.043037
-0.070083 0.202959 -0.041754
-0.070176 0.196930 -0.041875
-0.070270 0.190900 -0.041997
-0.070363 0.184870 -0.042118
-0.081752 0.178840 -0.043645
-0.070549 0.172811 -0.042362
-0.059344 0.166781 -0.041078
-0.070734 0.160752 -0.042605
-0.082121 0.154723 -0.044131
-0.116095 0.148697 -0.048468
-0.127478 0.142670 -0.049994
-0.150148 0.136646 -0.052925
-0.172812 0.130623 -0.055854
-0.184185 0.124599 -0.057379
-0.195557 0.118577 -0.058904
-0.195644 0.112552 -0.059025
-0.207012 0.106532 -0.060549
-0.218377 0.100512 -0.062073
-0.218463 0.094490 -0.062193
-0.229824 0.088472 -0.063716
-0.229909 0.082451 -0.063837
-0.241267 0.076436 -0.065360
-0.252622 0.070422 -0.066882
-0.252704 0.064404 -0.067002
-0.264055 0.058392 -0.068524
-0.275403 0.052383 -0.070046
-0.275483 0.046367 -0.070165
-0.286827 0.040360 -0.071686
-0.286905 0.034346 -0.071806
-0.298245 0.028341 -0.073326
-0.298322 0.022329 -0.073445
-0.309658 0.016328 -0.074965
-0.309733 0.010318 -0.075084
-0.321064 0.004319 -0.076603
-0.321138 -0.001689 -0.076722
-0.321211 -0.007697 -0.076841
-0.321284 -0.013703 -0.076959
-0.332609 -0.019696 -0.078478
-0.332680 -0.025700 -0.078596
-0.332751 -0.031703 -0.078714
-0.332822 -0.037705 -0.078833
-0.332892 -0.043706 -0.078951
-0.332962 -0.049706 -0.079069
-0.333031 -0.055706 -0.079187
-0.333100 -0.061704 -0.079305
-0.333169 -0.067701 -0.079423
-0.333237 -0.073697 -0.079541
-0.333305 -0.079692 -0.079659
-0.333373 -0.085686 -0.079776
-0.333441 -0.091679 -0.079894
-0.333508 -0.097671 -0.080012
-0.333575 -0.103662 -0.080129
-0.333642 -0.109652 -0.080247
-0.333709 -0.115641 -0.080365
-0.333776 -0.121629 -0.080482
-0.333842 -0.127616 -0.080600
-0.333909 -0.133602 -0.080717
-0.333975 -0.139587 -0.080834
-0.334042 -0.145571 -0.080952
-0.334108 -0.151554 -0.081069
-0.334175 -0.157536 -0.081187
-0.334241 -0.163518 -0.081304
-0.345545 -0.169484 -0.082819
-0.345612 -0.175463 -0.082937
-0.345677 -0.181442 -0.083054
-0.345744 -0.187420 -0.083171
-0.345810 -0.193398 -0.083288
-0.345877 -0.199375 -0.083406
-0.345943 -0.205351 -0.083523
-0.346010 -0.211326 -0.083640
-0.346077 -0.217301 -0.083758
-0.346145 -0.223275 -0.083875
-0.346213 -0.229248 -0.083992
-0.346281 -0.235222 -0.084110
-0.346350 -0.241194 -0.084227
-0.346419 -0.247167 -0.084345
-0.346488 -0.253138 -0.084462
-0.346558 -0.259110 -0.084580
-0.346628 -0.265081 -0.084698
-0.346699 -0.271052 -0.084815
-0.346770 -0.277023 -0.084933
-0.346843 -0.282994 -0.085051
-0.346915 -0.288965 -0.085169
-0.346988 -0.294936 -0.085287
-0.347062 -0.300907 -0.085405
-0.448169 -0.306791 -0.098092
-0.448244 -0.312767 -0.098210
-0.459544 -0.318735 -0.099725
-0.482068 -0.324697 -0.102636
-0.470924 -0.330684 -0.101359
-0.471004 -0.336663 -0.101478
0.034744 0.347556 0.046173
0.034808 0.341540 0.046315
0.045453 0.335519 0.050641
0.056098 0.329497 0.054967
0.056163 0.323478 0.055109
0.066808 0.317455 0.059436
0.066873 0.311434 0.059578
0.077519 0.305409 0.063905
0.077584 0.299387 0.064048
0.077648 0.293364 0.064190
0.077713 0.287341 0.064333
0.077777 0.281316 0.064476
0.077841 0.275291 0.064618
0.077905 0.269266 0.064761
0.067385 0.263242 0.060719
0.067448 0.257215 0.060861
0.056925 0.251190 0.056818
0.056987 0.245162 0.056960
0.057049 0.239134 0.057102
0.057111 0.233106 0.057244
0.046586 0.227078 0.053200
0.046647 0.221049 0.053341
0.046708 0.215019 0.053483
0.046769 0.208990 0.053624
0.046830 0.202960 0.053765
0.057476 0.196930 0.058092
0.057537 0.190900 0.058233
0.068183 0.184870 0.062560
0.068242 0.178840 0.062701
0.078887 0.172811 0.067026
0.089530 0.166782 0.071352
0.110754 0.160755 0.079860
0.110812 0.154726 0.080001
0.110870 0.148698 0.080141
0.132088 0.142673 0.088647
0.153300 0.136649 0.097151
0.163932 0.130625 0.101472
0.174561 0.124602 0.105791
0.174616 0.118577 0.105930
0.185243 0.112556 0.110249
0.185296 0.106532 0.110387
0.195920 0.100512 0.114704
0.206541 0.094494 0.119021
0.217159 0.088477 0.123336
0.217210 0.082456 0.123473
0.227824 0.076442 0.127787
0.238436 0.070428 0.132100
0.238485 0.064410 0.132236
0.249093 0.058399 0.136547
0.259699 0.052390 0.140857
0.259745 0.046374 0.140993
0.270347 0.040368 0.145301
0.270392 0.034354 0.145436
0.280990 0.028350 0.149743
0.281033 0.022339 0.149877
0.291627 0.016337 0.154182
0.302217 0.010338 0.158486
0.302259 0.004329 0.158620
0.302300 -0.001678 0.158753
0.302341 -0.007685 0.158886
0.302381 -0.013691 0.159018
0.302421 -0.019696 0.159151
0.302460 -0.025700 0.159284
0.302500 -0.031703 0.159416
0.302538 -0.037705 0.159548
0.313119 -0.043694 0.163848
0.313156 -0.049693 0.163979
0.313194 -0.055692 0.164111
0.313230 -0.061690 0.164242
0.313267 -0.067687 0.164373
0.313303 -0.073683 0.164504
