-0.908143 -1.854033 0.383334
-0.948732 -1.874841 0.400467
-0.989328 -1.895648 0.417602
-0.908266 -1.916388 0.383386
-0.908311 -1.937170 0.383405
-0.908358 -1.957950 0.383425
-0.867864 -1.978702 0.366332
-0.867915 -1.999479 0.366353
-0.867968 -2.020253 0.366376
-0.908568 -2.041057 0.383513
-1.070834 -2.061950 0.452007
-1.152019 -2.082785 0.486276
-1.192646 -2.103590 0.503425
-1.355024 -2.124485 0.571966
-1.476863 -2.145348 0.623395
-1.476918 -2.166122 0.623418
-1.476974 -2.186894 0.623441
-1.477031 -2.207663 0.623466
-1.477090 -2.228429 0.623490
-1.477150 -2.249193 0.623516
-1.477211 -2.269954 0.623542
-1.477273 -2.290713 0.623568
-1.477337 -2.311468 0.623595
-1.436814 -2.332185 0.606490
-1.396297 -2.352898 0.589387
-1.436949 -2.373680 0.606547
-1.396437 -2.394386 0.589446
-1.437088 -2.415164 0.606605
-1.437159 -2.435900 0.606635
-1.437230 -2.456635 0.606665
-1.437303 -2.477365 0.606696
-1.396801 -2.498053 0.589600
-1.396877 -2.518777 0.589632
-1.396952 -2.539499 0.589664
-1.397028 -2.560217 0.589696
-1.397105 -2.580932 0.589728
-1.397182 -2.601643 0.589761
-1.397259 -2.622352 0.589793
-1.397336 -2.643057 0.589826
-1.397414 -2.663759 0.589859
-1.397492 -2.684458 0.589892
-1.357011 -2.705112 0.572804
-1.357090 -2.725805 0.572838
-1.316616 -2.746452 0.555753
-1.316696 -2.767139 0.555787
-1.276227 -2.787780 0.538705
-1.235761 -2.808418 0.521624
-1.195300 -2.829053 0.504545
-1.154841 -2.849686 0.487467
-1.154923 -2.870359 0.487501
-1.155004 -2.891031 0.487535
-1.155084 -2.911699 0.487569
-1.155162 -2.932365 0.487603
-1.195776 -2.953070 0.504746
-1.236389 -2.973771 0.521889
-1.277001 -2.994467 0.539031
-1.236537 -3.015083 0.521951
-1.236609 -3.035737 0.521982
-1.236679 -3.056387 0.522011
-1.236748 -3.077036 0.522040
-1.236816 -3.097683 0.522069
-1.196350 -3.118292 0.504988
-1.196415 -3.138937 0.505015
-1.196478 -3.159578 0.505042
-1.196539 -3.180219 0.505068
-1.156070 -3.200826 0.487985
-1.156127 -3.221465 0.488010
-1.156183 -3.242102 0.488033
-1.115707 -3.262710 0.470948
-1.115759 -3.283346 0.470970
-1.115807 -3.303981 0.470990
-1.075325 -3.324592 0.453902
-1.075368 -3.345227 0.453921
-1.075409 -3.365861 0.453938
-1.034917 -3.386476 0.436846
-1.034953 -3.407112 0.436861
-0.994453 -3.427731 0.419766
-0.994482 -3.448368 0.419778
-0.953973 -3.468992 0.402679
-0.953995 -3.489631 0.402688
-0.954013 -3.510271 0.402696
-0.913489 -3.530904 0.385590
-0.872959 -3.551542 0.368482
-0.832420 -3.572185 0.351371
-0.791873 -3.592834 0.334255
-0.791869 -3.613485 0.334254
-0.751308 -3.634144 0.317133
-0.710737 -3.654808 0.300007
-0.670156 -3.675480 0.282878
-0.670132 -3.696144 0.282868
-0.710670 -3.716793 0.299979
-0.791765 -3.737425 0.334210
-0.872850 -3.758054 0.368436
-0.953925 -3.778680 0.402659
-1.075535 -3.799284 0.453991
-1.197124 -3.819884 0.505315
-1.278161 -3.840497 0.539521
-1.318657 -3.861125 0.556615
-0.254310 -0.088651 0.122465
-0.333787 -0.109441 0.160737
-0.333810 -0.130197 0.160749
-0.333829 -0.150952 0.160758
-0.572080 -0.171732 0.275490
-0.611778 -0.192475 0.294607
-0.691163 -0.213210 0.332835
-0.691153 -0.233949 0.332830
-0.691141 -0.254688 0.332824
-0.691127 -0.275427 0.332817
-0.730797 -0.296156 0.351921
-0.730778 -0.316894 0.351912
-0.730756 -0.337632 0.351901
-0.730733 -0.358371 0.351890
-0.730707 -0.379110 0.351878
-0.691000 -0.399864 0.332757
-0.690973 -0.420605 0.332744
-0.690945 -0.441346 0.332730
-0.690915 -0.462088 0.332715
-0.690884 -0.482831 0.332701
-0.690852 -0.503574 0.332685
-0.690818 -0.524319 0.332669
-0.690784 -0.545064 0.332652
-0.651078 -0.565829 0.313531
-0.651043 -0.586577 0.313515
-0.651007 -0.607325 0.313497
-0.650971 -0.628075 0.313480
-0.650934 -0.648825 0.313462
-0.650896 -0.669577 0.313444
-0.650858 -0.690330 0.313426
-0.650820 -0.711083 0.313407
-0.650782 -0.731838 0.313389
-0.650743 -0.752595 0.313370
-0.650705 -0.773352 0.313352
-0.690327 -0.794090 0.332432
-0.690287 -0.814849 0.332413
-0.729909 -0.835589 0.351493
-0.729869 -0.856352 0.351474
-0.729831 -0.877116 0.351456
-0.729792 -0.897882 0.351437
-0.729754 -0.918648 0.351419
-0.729716 -0.939416 0.351401
-0.729680 -0.960186 0.351383
-0.729644 -0.980956 0.351366
-0.729609 -1.001729 0.351349
-0.729575 -1.022501 0.351333
-0.729542 -1.043276 0.351317
-0.729510 -1.064052 0.351301
-0.729479 -1.084828 0.351286
-0.729449 -1.105607 0.351272
-0.769076 -1.126370 0.370354
-0.729393 -1.147166 0.351245
-0.729368 -1.167947 0.351233
-0.729343 -1.188729 0.351221
-0.729320 -1.209512 0.351210
-0.729299 -1.230297 0.351199
-0.729279 -1.251082 0.351190
-0.729260 -1.271867 0.351181
-0.729244 -1.292654 0.351173
-0.729229 -1.313441 0.351166
-0.729216 -1.334229 0.351159
-0.729204 -1.355018 0.351154
-0.729194 -1.375807 0.351149
-0.689540 -1.396600 0.332053
-0.689535 -1.417389 0.332051
-0.689532 -1.438178 0.332049
-0.689530 -1.458967 0.332048
-0.729175 -1.479758 0.351140
-0.689533 -1.500547 0.332050
-0.729181 -1.521340 0.351143
-0.729187 -1.542131 0.351146
-0.768842 -1.562927 0.370242
-0.808502 -1.583725 0.389340
-0.848167 -1.604524 0.408441
-0.848181 -1.625318 0.408448
-0.848196 -1.646112 0.408455
-0.848213 -1.666905 0.408464
-0.848233 -1.687698 0.408473
-0.848255 -1.708490 0.408484
-0.848279 -1.729281 0.408495
-0.848305 -1.750072 0.408508
-0.808683 -1.770846 0.389427
-0.808713 -1.791634 0.389442
-0.848395 -1.812439 0.408551
-0.848430 -1.833226 0.408568
-0.848467 -1.854013 0.408586
-0.888158 -1.874819 0.427699
-0.888198 -1.895604 0.427719
-0.888240 -1.916388 0.427739
-0.808986 -1.937120 0.389573
-0.809033 -1.957898 0.389596
-0.809082 -1.978675 0.389620
-0.848779 -1.999479 0.408736
-0.848831 -2.020253 0.408761
-0.888535 -2.041057 0.427881
-1.047224 -2.061950 0.504299
-1.126619 -2.082785 0.542532
-1.325095 -2.103709 0.638110
-1.364844 -2.124515 0.657251
-1.444301 -2.145348 0.695514
-1.484061 -2.166151 0.714661
-1.484115 -2.186924 0.714687
-1.484170 -2.207694 0.714713
-1.484226 -2.228461 0.714741
-1.484283 -2.249225 0.714768
-1.484342 -2.269987 0.714797
-1.444702 -2.290713 0.695708
-1.444765 -2.311468 0.695738
-1.444828 -2.332220 0.695768
-1.405200 -2.352934 0.676685
-1.405267 -2.373680 0.676717
-1.405334 -2.394423 0.676750
-1.405403 -2.415164 0.676783
-1.405472 -2.435900 0.676816
-1.405542 -2.456635 0.676850
-1.405613 -2.477365 0.676884
-1.405685 -2.498093 0.676918
-1.405756 -2.518818 0.676953
-1.405829 -2.539539 0.676988
-1.405903 -2.560257 0.677023
-1.366302 -2.580932 0.657953
-1.366377 -2.601643 0.657989
-1.366452 -2.622352 0.658026
-1.366528 -2.643057 0.658062
-1.366604 -2.663759 0.658099
-1.366680 -2.684458 0.658135
-1.327092 -2.705112 0.639071
-1.327169 -2.725805 0.639109
-1.327246 -2.746494 0.639146
-1.327323 -2.767181 0.639183
-1.327400 -2.787865 0.639220
-1.327476 -2.808546 0.639256
-1.327552 -2.829224 0.639293
-1.367283 -2.849939 0.658426
-1.367357 -2.870611 0.658462
-1.367431 -2.891279 0.658497
-1.367503 -2.911945 0.658532
-1.367575 -2.932609 0.658566
-1.327995 -2.953230 0.639506
-1.328066 -2.973888 0.639541
-1.288490 -2.994506 0.620483
-1.288560 -3.015160 0.620516
-1.248986 -3.035774 0.601459
-1.249054 -3.056425 0.601492
-1.288763 -3.077108 0.620614
-1.288827 -3.097754 0.620645
-1.249250 -3.118362 0.601586
-1.209674 -3.138970 0.582528
-1.209735 -3.159611 0.582557
-1.209795 -3.180251 0.582586
-1.170216 -3.200858 0.563527
-1.209908 -3.221525 0.582641
-1.209962 -3.242160 0.582667
-1.170379 -3.262766 0.563605
-1.130794 -3.283373 0.544542
-1.130841 -3.304007 0.544565
-1.091251 -3.324616 0.525500
-1.091294 -3.345250 0.525521
-1.091334 -3.365883 0.525541
-1.051736 -3.386496 0.506472
-1.051771 -3.407130 0.506488
-1.012165 -3.427747 0.487416
-0.972555 -3.448368 0.468341
-0.972580 -3.469005 0.468353
-0.932961 -3.489631 0.449274
-0.893335 -3.510262 0.430192
-0.853702 -3.530897 0.411107
-0.853712 -3.551542 0.411111
-0.853718 -3.572187 0.411114
-0.814068 -3.592833 0.392021
-0.774410 -3.613485 0.372923
-0.734743 -3.634144 0.353821
-0.695067 -3.654808 0.334715
-0.695049 -3.675468 0.334706
-0.655357 -3.696144 0.315592
-0.695001 -3.716793 0.334683
-0.774308 -3.737425 0.372874
-0.813943 -3.758071 0.391960
-0.893234 -3.778697 0.430144
-1.051821 -3.799284 0.506513
-1.170730 -3.819884 0.563774
-1.249979 -3.840497 0.601937
-1.368855 -3.861086 0.659183
-1.408450 -3.881711 0.678250
-0.557519 0.098033 0.303238
-0.557560 0.077273 0.303260
-0.518863 0.056535 0.282213
-0.247846 -0.026361 0.134805
-0.247886 -0.047126 0.134827
-0.325395 -0.067926 0.176984
-0.364152 -0.088699 0.198065
-0.441620 -0.109475 0.240200
-0.402915 -0.130217 0.219148
-0.519074 -0.150985 0.282328
-0.557789 -0.171732 0.303385
-0.635200 -0.192473 0.345489
-0.673896 -0.213210 0.366536
-0.673887 -0.233949 0.366531
-0.673875 -0.254688 0.366525
-0.673861 -0.275427 0.366517
-0.673845 -0.296166 0.366509
-0.673827 -0.316905 0.366499
-0.673807 -0.337644 0.366488
-0.673786 -0.358384 0.366476
-0.673763 -0.379124 0.366464
-0.673738 -0.399864 0.366450
-0.673711 -0.420605 0.366436
-0.673684 -0.441346 0.366421
-0.673655 -0.462088 0.366405
-0.673624 -0.482831 0.366388
-0.634909 -0.503592 0.345331
-0.634878 -0.524337 0.345314
-0.634846 -0.545083 0.345297
-0.634812 -0.565829 0.345278
-0.634778 -0.586577 0.345260
-0.634744 -0.607325 0.345241
-0.596032 -0.628095 0.324186
-0.634672 -0.648825 0.345202
-0.634635 -0.669577 0.345182
-0.634599 -0.690330 0.345162
-0.634561 -0.711083 0.345142
-0.634524 -0.731838 0.345122
-0.634486 -0.752595 0.345101
-0.634449 -0.773352 0.345081
-0.634411 -0.794111 0.345060
-0.634374 -0.814871 0.345040
-0.673004 -0.835611 0.366051
-0.672967 -0.856373 0.366031
-0.672929 -0.877137 0.366010
-0.672893 -0.897902 0.365990
-0.672856 -0.918669 0.365971
-0.672820 -0.939436 0.365951
-0.672786 -0.960205 0.365932
-0.672751 -0.980976 0.365914
-0.672717 -1.001747 0.365895
-0.634023 -1.022538 0.344849
-0.633991 -1.043311 0.344832
-0.672622 -1.064069 0.365843
-0.672592 -1.084845 0.365827
-0.672564 -1.105622 0.365812
-0.711198 -1.126386 0.386825
-0.711172 -1.147166 0.386811
-0.711147 -1.167947 0.386797
-0.711123 -1.188729 0.386784
-0.749763 -1.209500 0.407801
-0.749742 -1.230285 0.407789
-0.749722 -1.251071 0.407779
-0.711042 -1.271867 0.386740
-0.749687 -1.292645 0.407759
-0.749672 -1.313433 0.407752
-0.710998 -1.334229 0.386716
-0.710987 -1.355018 0.386710
-0.672321 -1.375811 0.365680
-0.672314 -1.396600 0.365676
-0.672309 -1.417389 0.365673
-0.672306 -1.438178 0.365671
-0.672304 -1.458967 0.365670
-0.672305 -1.479757 0.365671
-0.672307 -1.500547 0.365672
-0.710965 -1.521340 0.386698
-0.710970 -1.542131 0.386701
-0.749635 -1.562927 0.407731
-0.749644 -1.583719 0.407736
-0.788316 -1.604517 0.428770
-0.826991 -1.625318 0.449806
-0.788344 -1.646103 0.428785
-0.788362 -1.666895 0.428795
-0.788381 -1.687686 0.428805
-0.865729 -1.708502 0.470875
-0.904421 -1.729308 0.491920
-0.904445 -1.750101 0.491934
-0.904472 -1.770894 0.491948
-0.865833 -1.791668 0.470932
-0.865864 -1.812458 0.470949
-0.865898 -1.833246 0.470967
-0.865933 -1.854033 0.470986
-0.865970 -1.874819 0.471006
-0.827348 -1.895581 0.450000
-0.827389 -1.916364 0.450022
-0.827433 -1.937145 0.450046
-0.827479 -1.957924 0.450071
-0.827526 -1.978702 0.450097
-0.904898 -1.999534 0.492180
-0.982285 -2.020368 0.534271
-0.982336 -2.041145 0.534299
-1.137107 -2.062038 0.618480
-1.175848 -2.082844 0.639551
-1.137213 -2.103590 0.618537
-1.253343 -2.124455 0.681701
-1.369508 -2.145319 0.744884
-1.408272 -2.166122 0.765968
-1.408325 -2.186894 0.765997
-1.408380 -2.207663 0.766027
-1.408436 -2.228429 0.766057
-1.408493 -2.249193 0.766088
-1.408552 -2.269954 0.766120
-1.408611 -2.290713 0.766152
-1.408672 -2.311468 0.766185
-1.408733 -2.332220 0.766219
-1.408796 -2.352970 0.766253
-1.408860 -2.373717 0.766288
-1.408925 -2.394460 0.766323
-1.370293 -2.415164 0.745311
-1.370361 -2.435900 0.745348
-1.370429 -2.456635 0.745385
-1.370498 -2.477365 0.745422
-1.370568 -2.498093 0.745460
-1.370638 -2.518818 0.745499
-1.370709 -2.539539 0.745537
-1.332095 -2.560217 0.724535
-1.332169 -2.580932 0.724575
-1.332242 -2.601643 0.724615
-1.332316 -2.622352 0.724655
-1.332389 -2.643057 0.724695
-1.332463 -2.663759 0.724735
-1.332537 -2.684458 0.724775
-1.332611 -2.705154 0.724816
-1.332686 -2.725847 0.724856
-1.332760 -2.746536 0.724897
-1.294164 -2.767181 0.703904
-1.294239 -2.787865 0.703945
-1.294313 -2.808546 0.703985
-1.294387 -2.829224 0.704025
-1.294461 -2.849898 0.704065
-1.294534 -2.870570 0.704105
-1.333270 -2.891279 0.725174
-1.333340 -2.911945 0.725212
-1.294750 -2.932569 0.704223
-1.294819 -2.953230 0.704260
-1.294889 -2.973888 0.704298
-1.294957 -2.994545 0.704335
-1.295024 -3.015198 0.704372
-1.217783 -3.035774 0.662360
-1.217850 -3.056425 0.662396
-1.217915 -3.077072 0.662432
-1.217979 -3.097718 0.662467
-1.218042 -3.118362 0.662500
-1.179454 -3.138970 0.641513
-1.179514 -3.159611 0.641545
-1.179572 -3.180251 0.641576
-1.140982 -3.200858 0.620587
-1.141037 -3.221495 0.620617
-1.141090 -3.242131 0.620646
-1.102495 -3.262738 0.599654
-1.102544 -3.283373 0.599681
-1.102590 -3.304007 0.599706
-1.063990 -3.324616 0.578711
-1.025386 -3.345227 0.557714
-1.025425 -3.365861 0.557735
-0.986815 -3.386476 0.536735
-0.986849 -3.407112 0.536753
-0.948231 -3.427731 0.515749
-0.948259 -3.448368 0.515764
-0.909633 -3.468992 0.494755
-0.871001 -3.489621 0.473743
-0.871017 -3.510262 0.473752
-0.832375 -3.530897 0.452734
-0.832384 -3.551542 0.452739
-0.793730 -3.572185 0.431715
-0.755067 -3.592834 0.410686
-0.755064 -3.613485 0.410684
-0.716388 -3.634144 0.389648
-0.677703 -3.654808 0.368607
-0.639008 -3.675480 0.347560
-0.638985 -3.696144 0.347548
-0.638958 -3.716809 0.347533
-0.638926 -3.737477 0.347516
-0.638891 -3.758147 0.347497
-0.754900 -3.778753 0.410595
-0.909555 -3.799339 0.494713
-1.257401 -3.840478 0.683908
-1.296014 -3.861106 0.704910
-1.334621 -3.881732 0.725909
-0.504132 0.139588 0.307368
-0.504180 0.118821 0.307398
-0.504225 0.098057 0.307425
-0.541915 0.077273 0.330405
-0.541951 0.056514 0.330426
-0.541983 0.035758 0.330446
-0.466726 0.015037 0.284562
-0.391465 -0.005684 0.238676
-0.353850 -0.026425 0.215742
-0.391526 -0.047200 0.238713
-0.391552 -0.067956 0.238728
-0.353934 -0.088699 0.215793
-0.504492 -0.109490 0.307588
-0.617379 -0.130248 0.376415
-0.617381 -0.150990 0.376416
-0.617380 -0.171732 0.376415
-0.654995 -0.192470 0.399349
-0.654987 -0.213210 0.399345
-0.617364 -0.233955 0.376405
-0.617354 -0.254695 0.376399
-0.617342 -0.275435 0.376392
-0.617328 -0.296175 0.376384
-0.654921 -0.316905 0.399304
-0.654901 -0.337644 0.399292
-0.654881 -0.358384 0.399279
-0.654858 -0.379124 0.399266
-0.654834 -0.399864 0.399251
-0.654808 -0.420605 0.399235
-0.617180 -0.441362 0.376293
-0.617153 -0.462104 0.376277
-0.617125 -0.482848 0.376260
-0.617095 -0.503592 0.376242
-0.617064 -0.524337 0.376223
-0.617033 -0.545083 0.376204
-0.617000 -0.565829 0.376184
-0.616968 -0.586577 0.376164
-0.579342 -0.607345 0.353224
-0.579309 -0.628095 0.353203
-0.579274 -0.648845 0.353182
-0.579239 -0.669597 0.353161
-0.579205 -0.690350 0.353140
-0.579170 -0.711104 0.353119
-0.579134 -0.731859 0.353097
-0.579099 -0.752616 0.353075
-0.579063 -0.773373 0.353053
-0.579027 -0.794132 0.353032
-0.578991 -0.814891 0.353010
-0.616538 -0.835632 0.375902
-0.616501 -0.856394 0.375880
-0.616466 -0.877158 0.375858
-0.616431 -0.897923 0.375837
-0.616396 -0.918689 0.375816
-0.616362 -0.939456 0.375795
-0.616329 -0.960225 0.375775
-0.616296 -0.980995 0.375755
-0.616264 -1.001766 0.375735
-0.616233 -1.022538 0.375716
-0.616202 -1.043311 0.375697
-0.616174 -1.064085 0.375680
-0.616145 -1.084861 0.375662
-0.616118 -1.105638 0.375646
-0.653666 -1.126401 0.398539
-0.653641 -1.147180 0.398524
-0.691193 -1.167947 0.421419
-0.728748 -1.188716 0.444316
-0.728726 -1.209500 0.444303
-0.728705 -1.230285 0.444290
-0.728686 -1.251071 0.444278
-0.691091 -1.271867 0.421357
-0.691076 -1.292654 0.421348
-0.691061 -1.313441 0.421339
-0.691049 -1.334229 0.421331
-0.653466 -1.355023 0.398417
-0.653457 -1.375811 0.398412
-0.653450 -1.396600 0.398407
-0.615877 -1.417391 0.375499
-0.615874 -1.438179 0.375498
-0.653440 -1.458967 0.398401
-0.691010 -1.479758 0.421308
-0.728585 -1.500550 0.444217
-0.728589 -1.521342 0.444219
-0.728594 -1.542135 0.444222
-0.766176 -1.562931 0.467136
-0.803763 -1.583730 0.490053
-0.803774 -1.604524 0.490060
-0.766209 -1.625310 0.467156
-0.766224 -1.646103 0.467165
-0.766241 -1.666895 0.467176
-0.766260 -1.687686 0.467187
-0.803857 -1.708490 0.490110
-0.803880 -1.729281 0.490124
-0.803905 -1.750072 0.490139
-0.803932 -1.770862 0.490156
-0.803960 -1.791651 0.490173
-0.803991 -1.812439 0.490192
-0.766450 -1.833207 0.467303
-0.766485 -1.853992 0.467324
-0.766522 -1.874776 0.467347
-0.766561 -1.895558 0.467371
-0.766602 -1.916340 0.467396
-0.766644 -1.937120 0.467421
-0.766688 -1.957898 0.467449
-0.766735 -1.978675 0.467477
-0.804354 -1.999479 0.490413
-0.804404 -2.020253 0.490444
-0.842030 -2.041057 0.513384
-0.954825 -2.061920 0.582155
-1.030056 -2.082755 0.628024
-1.030110 -2.103528 0.628056
-1.218176 -2.124455 0.742720
-1.293460 -2.145289 0.788620
-1.406386 -2.166151 0.857471
-1.406437 -2.186924 0.857502
-1.406489 -2.207694 0.857534
-1.406543 -2.228461 0.857566
-1.368973 -2.249193 0.834660
-1.369030 -2.269954 0.834695
-1.369087 -2.290713 0.834730
-1.369146 -2.311468 0.834766
-1.369206 -2.332220 0.834803
-1.369267 -2.352970 0.834840
-1.369329 -2.373717 0.834878
-1.369392 -2.394460 0.834916
-1.369456 -2.415201 0.834955
-1.331910 -2.435900 0.812063
-1.331977 -2.456635 0.812104
-1.332044 -2.477365 0.812145
-1.332112 -2.498093 0.812186
-1.332180 -2.518818 0.812227
-1.332249 -2.539539 0.812270
-1.294719 -2.560217 0.789387
-1.294790 -2.580932 0.789431
-1.257267 -2.601602 0.766553
-1.257340 -2.622310 0.766598
-1.295004 -2.643057 0.789562
-1.295076 -2.663759 0.789606
-1.295148 -2.684458 0.789650
-1.295220 -2.705154 0.789693
-1.295293 -2.725847 0.789738
-1.295365 -2.746536 0.789781
-1.295437 -2.767223 0.789825
-1.333094 -2.787947 0.812785
-1.333164 -2.808628 0.812828
-1.333234 -2.829305 0.812870
-1.333303 -2.849979 0.812912
-1.333372 -2.870651 0.812955
-1.333440 -2.891319 0.812996
-1.295929 -2.911945 0.790125
-1.295996 -2.932609 0.790167
-1.296064 -2.953269 0.790208
-1.258556 -2.973888 0.767339
-1.258623 -2.994545 0.767380
-1.258688 -3.015198 0.767420
-1.221182 -3.035812 0.744553
-1.221247 -3.056461 0.744592
-1.221310 -3.077108 0.744630
-1.183805 -3.097718 0.721763
-1.183865 -3.118362 0.721800
-1.146360 -3.138970 0.698934
-1.146418 -3.159611 0.698969
-1.146475 -3.180251 0.699003
-1.108968 -3.200858 0.676135
-1.109021 -3.221495 0.676168
-1.109072 -3.242131 0.676199
-1.109122 -3.262766 0.676229
-1.071608 -3.283373 0.653358
-1.034092 -3.303981 0.630484
-1.034135 -3.324616 0.630510
-1.034176 -3.345250 0.630535
-0.996653 -3.365861 0.607658
-0.996689 -3.386496 0.607679
-0.959159 -3.407112 0.584798
-0.959189 -3.427747 0.584816
-0.921652 -3.448368 0.561929
-0.921676 -3.469005 0.561944
-0.884130 -3.489631 0.539052
-0.846578 -3.510262 0.516157
-0.846591 -3.530904 0.516165
-0.809029 -3.551542 0.493263
-0.809034 -3.572187 0.493267
-0.771460 -3.592833 0.470358
-0.733878 -3.613485 0.447444
-0.696287 -3.634144 0.424525
-0.658687 -3.654808 0.401600
-0.658671 -3.675468 0.401590
-0.621056 -3.696144 0.378657
-0.621029 -3.716809 0.378641
-0.658596 -3.737459 0.401545
-0.696159 -3.758107 0.424447
-0.696124 -3.778774 0.424426
-0.658487 -3.799468 0.401478
-0.333239 -0.192465 -0.246713
-0.333246 -0.213215 -0.246719
-0.368667 -0.233967 -0.272942
-0.368668 -0.254715 -0.272943
-0.439485 -0.275458 -0.325373
-0.474884 -0.296197 -0.351580
-0.510277 -0.316933 -0.377783
-0.545664 -0.337666 -0.403982
-0.581047 -0.358396 -0.430178
-0.581026 -0.379137 -0.430163
-0.581005 -0.399878 -0.430147
-0.580982 -0.420620 -0.430130
-0.580958 -0.441362 -0.430112
-0.616325 -0.462088 -0.456296
-0.651690 -0.482813 -0.482478
-0.687052 -0.503537 -0.508659
-0.687021 -0.524281 -0.508636
-0.722380 -0.545004 -0.534814
-0.722346 -0.565749 -0.534788
-0.722311 -0.586495 -0.534763
-0.722276 -0.607242 -0.534737
-0.722241 -0.627990 -0.534711
-0.722204 -0.648740 -0.534684
-0.722168 -0.669490 -0.534657
-0.722131 -0.690243 -0.534630
-0.722094 -0.710996 -0.534602
-0.722058 -0.731751 -0.534575
-0.722020 -0.752507 -0.534547
-0.721983 -0.773264 -0.534520
-0.721947 -0.794023 -0.534493
-0.721910 -0.814784 -0.534466
-0.721873 -0.835545 -0.534438
-0.757222 -0.856286 -0.560609
-0.757185 -0.877051 -0.560582
-0.792535 -0.897796 -0.586753
-0.792500 -0.918564 -0.586727
-0.792465 -0.939333 -0.586701
-0.792431 -0.960104 -0.586676
-0.827784 -0.980856 -0.612850
-0.827751 -1.001631 -0.612825
-0.827719 -1.022407 -0.612801
-0.863078 -1.043165 -0.638979
-0.863047 -1.063944 -0.638957
-0.863017 -1.084725 -0.638935
-0.862989 -1.105507 -0.638914
-0.862962 -1.126290 -0.638894
-0.898328 -1.147059 -0.665076
-0.898303 -1.167846 -0.665058
-0.898279 -1.188634 -0.665041
-0.898257 -1.209423 -0.665024
-0.898236 -1.230212 -0.665008
-0.898216 -1.251004 -0.664994
-0.862807 -1.271806 -0.638779
-0.862791 -1.292598 -0.638767
-0.827388 -1.313400 -0.612557
-0.827375 -1.334193 -0.612547
-0.791980 -1.354993 -0.586342
-0.791970 -1.375786 -0.586335
-0.756583 -1.396584 -0.560136
-0.827339 -1.417370 -0.612520
-0.862719 -1.438163 -0.638714
-0.827330 -1.458962 -0.612513
-0.791946 -1.479758 -0.586317
-0.791947 -1.500554 -0.586318
-0.791950 -1.521349 -0.586319
-0.791953 -1.542145 -0.586322
-0.791959 -1.562940 -0.586327
-0.791967 -1.583736 -0.586333
-0.898128 -1.604550 -0.664929
-0.898139 -1.625348 -0.664937
-1.145972 -1.646199 -0.848420
-1.216826 -1.667021 -0.900876
-1.252266 -1.687836 -0.927115
-1.358586 -1.708672 -1.005828
-1.464941 -1.729510 -1.084568
-1.571329 -1.750351 -1.163333
-1.606810 -1.771175 -1.189601
-1.642294 -1.791998 -1.215872
-1.713257 -1.812833 -1.268409
-1.748751 -1.833658 -1.294687
-1.784248 -1.854482 -1.320967
-1.784267 -1.875294 -1.320981
-1.819766 -1.896117 -1.347263
-1.855269 -1.916939 -1.373547
-1.855288 -1.937748 -1.373562
-1.855309 -1.958555 -1.373577
-1.890813 -1.979373 -1.399863
-1.890834 -2.000177 -1.399878
-1.890856 -2.020979 -1.399894
-1.926361 -2.041792 -1.426180
-1.926383 -2.062590 -1.426197
-1.926407 -2.083385 -1.426214
-1.926430 -2.104178 -1.426232
-1.961934 -2.124983 -1.452517
-1.926480 -2.145756 -1.426269
-1.926506 -2.166541 -1.426288
-1.891060 -2.187306 -1.400045
-1.855620 -2.208067 -1.373807
-1.465696 -2.228580 -1.085127
-1.359463 -2.249257 -1.006478
-1.359515 -2.270019 -1.006516
-1.324150 -2.290746 -0.980334
-1.324204 -2.311502 -0.980374
-1.324259 -2.332255 -0.980415
-1.288905 -2.352970 -0.954240
-1.288964 -2.373717 -0.954284
-1.289023 -2.394460 -0.954327
-1.289083 -2.415201 -0.954372
-1.289143 -2.435938 -0.954417
-1.289204 -2.456673 -0.954462
-1.289266 -2.477404 -0.954508
-1.289329 -2.498132 -0.954554
-1.289392 -2.518857 -0.954601
-1.289456 -2.539579 -0.954648
-1.289520 -2.560297 -0.954696
-1.289584 -2.581012 -0.954743
-1.254256 -2.601684 -0.928588
-1.254322 -2.622393 -0.928637
-1.254389 -2.643098 -0.928686
-1.254455 -2.663800 -0.928735
-1.254522 -2.684500 -0.928785
-1.219204 -2.705154 -0.902637
-1.219272 -2.725847 -0.902687
-1.219340 -2.746536 -0.902738
-1.219407 -2.767223 -0.902788
-1.219475 -2.787906 -0.902838
-1.219542 -2.808587 -0.902887
-1.219608 -2.829265 -0.902936
-1.184300 -2.849898 -0.876796
-1.184367 -2.870570 -0.876845
-1.184433 -2.891239 -0.876894
-1.184499 -2.911906 -0.876943
-1.149195 -2.932529 -0.850806
-1.149260 -2.953191 -0.850854
-1.149324 -2.973850 -0.850902
-1.149388 -2.994506 -0.850949
-1.149450 -3.015160 -0.850995
-1.149511 -3.035812 -0.851040
-1.114209 -3.056425 -0.824904
-1.114269 -3.077072 -0.824948
-1.114327 -3.097718 -0.824992
-1.079024 -3.118328 -0.798855
-1.079080 -3.138970 -0.798897
-1.043777 -3.159578 -0.772760
-1.043830 -3.180219 -0.772799
-1.043882 -3.200858 -0.772838
-1.008576 -3.221465 -0.746699
-1.008624 -3.242102 -0.746734
-0.973314 -3.262710 -0.720593
-0.973359 -3.283346 -0.720626
-0.973402 -3.303981 -0.720657
-0.938086 -3.324592 -0.694511
-0.938124 -3.345227 -0.694539
-0.938160 -3.365861 -0.694566
-0.902835 -3.386476 -0.668414
-0.902866 -3.407112 -0.668436
-0.867535 -3.427731 -0.642279
-0.832200 -3.448353 -0.616119
-0.832221 -3.468992 -0.616135
-0.832240 -3.489631 -0.616149
-0.796892 -3.510262 -0.589979
-0.761539 -3.530897 -0.563805
-0.761547 -3.551542 -0.563811
-0.726182 -3.572185 -0.537629
-0.690810 -3.592834 -0.511441
-0.655430 -3.613489 -0.485247
-0.620042 -3.634150 -0.459048
-0.584645 -3.654818 -0.432842
-0.584627 -3.675480 -0.432829
-0.584606 -3.696144 -0.432813
-0.655356 -3.716778 -0.485193
-0.690716 -3.737425 -0.511371
-0.726071 -3.758071 -0.537546
-0.690657 -3.778753 -0.511327
-0.655233 -3.799444 -0.485101
-0.655193 -3.820116 -0.485072
-0.655149 -3.840791 -0.485039
-0.655102 -3.861468 -0.485005
-0.690446 -3.882116 -0.511172
-0.690393 -3.902796 -0.511132
-0.690336 -3.923480 -0.511090
-0.448019 0.139618 0.312673
-0.448068 0.118849 0.312707
-0.484277 0.098057 0.337977
-0.484317 0.077295 0.338005
-0.520511 0.056514 0.363265
-0.520542 0.035758 0.363286
-0.520569 0.015003 0.363305
-0.520594 -0.005750 0.363323
-0.556762 -0.026513 0.388565
-0.556779 -0.047262 0.388576
-0.556793 -0.068010 0.388586
-0.556804 -0.088756 0.388594
-0.556813 -0.109501 0.388600
-0.592955 -0.130248 0.413823
-0.592956 -0.150990 0.413824
-0.592956 -0.171732 0.413824
-0.592953 -0.192473 0.413822
-0.592947 -0.213214 0.413818
-0.592940 -0.233955 0.413813
-0.592930 -0.254695 0.413806
-0.592919 -0.275435 0.413798
-0.592906 -0.296175 0.413789
-0.592890 -0.316915 0.413778
-0.592873 -0.337655 0.413766
-0.592854 -0.358396 0.413753
-0.592834 -0.379137 0.413739
-0.592812 -0.399878 0.413723
-0.592788 -0.420620 0.413707
-0.592764 -0.441362 0.413690
-0.592738 -0.462104 0.413672
-0.592710 -0.482848 0.413653
-0.592682 -0.503592 0.413633
-0.592652 -0.524337 0.413612
-0.592623 -0.545083 0.413591
-0.592591 -0.565829 0.413569
-0.592560 -0.586577 0.413547
-0.556422 -0.607345 0.388327
-0.556390 -0.628095 0.388305
-0.556357 -0.648845 0.388282
-0.520223 -0.669617 0.363064
-0.520191 -0.690370 0.363042
-0.556257 -0.711104 0.388212
-0.556223 -0.731859 0.388188
-0.556189 -0.752616 0.388164
-0.556154 -0.773373 0.388140
-0.556120 -0.794132 0.388116
-0.556086 -0.814891 0.388092
-0.556052 -0.835652 0.388069
-0.556018 -0.856415 0.388045
-0.592078 -0.877158 0.413212
-0.592044 -0.897923 0.413188
-0.592011 -0.918689 0.413164
-0.591978 -0.939456 0.413142
-0.591946 -0.960225 0.413119
-0.591915 -0.980995 0.413097
-0.591884 -1.001766 0.413076
-0.591854 -1.022538 0.413055
-0.591825 -1.043311 0.413035
-0.591797 -1.064085 0.413015
-0.591769 -1.084861 0.412996
-0.591743 -1.105638 0.412978
-0.591718 -1.126415 0.412960
-0.627782 -1.147180 0.438129
-0.627759 -1.167961 0.438113
-0.627737 -1.188742 0.438098
-0.627716 -1.209524 0.438083
-0.627698 -1.230308 0.438070
-0.627680 -1.251092 0.438058
-0.627663 -1.271877 0.438046
-0.627649 -1.292662 0.438036
-0.627636 -1.313449 0.438027
-0.591541 -1.334242 0.412837
-0.591531 -1.355028 0.412830
-0.591523 -1.375815 0.412824
-0.627599 -1.396600 0.438001
-0.627594 -1.417389 0.437998
-0.627591 -1.438178 0.437996
-0.627589 -1.458967 0.437995
-0.627590 -1.479757 0.437995
-0.663675 -1.500549 0.463179
-0.663678 -1.521340 0.463181
-0.663684 -1.542131 0.463185
-0.699777 -1.562927 0.488375
-0.699786 -1.583719 0.488381
-0.699797 -1.604511 0.488388
-0.699810 -1.625302 0.488397
-0.699824 -1.646093 0.488407
-0.735928 -1.666895 0.513604
-0.735946 -1.687686 0.513617
-0.735966 -1.708477 0.513631
-0.735988 -1.729268 0.513646
-0.699927 -1.750042 0.488479
-0.699953 -1.770830 0.488498
-0.736066 -1.791634 0.513701
-0.700012 -1.812403 0.488538
-0.736128 -1.833207 0.513744
-0.700078 -1.853971 0.488584
-0.700113 -1.874754 0.488609
-0.664072 -1.895512 0.463456
-0.664112 -1.916291 0.463484
-0.664154 -1.937069 0.463513
-0.700275 -1.957872 0.488722
-0.736402 -1.978675 0.513935
-0.772533 -1.999479 0.539151
-0.772581 -2.020253 0.539184
-0.808718 -2.041057 0.564404
-0.917051 -2.061920 0.640010
-0.989306 -2.082755 0.690437
-1.025465 -2.103559 0.715673
-1.025517 -2.124331 0.715709
-1.170035 -2.145229 0.816568
-1.350748 -2.166151 0.942687
-1.350796 -2.186924 0.942721
-1.350847 -2.207694 0.942756
-1.350898 -2.228461 0.942792
-1.350950 -2.249225 0.942828
-1.314869 -2.269954 0.917647
-1.314924 -2.290713 0.917686
-1.314981 -2.311468 0.917726
-1.315039 -2.332220 0.917766
-1.315097 -2.352970 0.917807
-1.315157 -2.373717 0.917849
-1.315217 -2.394460 0.917891
-1.315279 -2.415201 0.917933
-1.315340 -2.435938 0.917976
-1.279282 -2.456635 0.892811
-1.279346 -2.477365 0.892856
-1.279412 -2.498093 0.892902
-1.279477 -2.518818 0.892947
-1.243430 -2.539499 0.867790
-1.243498 -2.560217 0.867837
-1.243566 -2.580932 0.867885
-1.243635 -2.601643 0.867933
-1.207598 -2.622310 0.842783
-1.207668 -2.643015 0.842832
-1.243841 -2.663759 0.868077
-1.207808 -2.684417 0.842930
-1.207879 -2.705112 0.842979
-1.244049 -2.725847 0.868222
-1.244118 -2.746536 0.868271
-1.244188 -2.767223 0.868319
-1.280355 -2.787947 0.893560
-1.280422 -2.808628 0.893607
-1.280489 -2.829305 0.893654
-1.280556 -2.849979 0.893700
-1.280622 -2.870651 0.893746
-1.244594 -2.891279 0.868603
-1.244660 -2.911945 0.868649
-1.244725 -2.932609 0.868694
-1.208701 -2.953230 0.843553
-1.208766 -2.973888 0.843598
-1.208830 -2.994545 0.843643
-1.208892 -3.015198 0.843686
-1.208954 -3.035849 0.843730
-1.172933 -3.056461 0.818590
-1.172993 -3.077108 0.818632
-1.173052 -3.097754 0.818673
-1.137030 -3.118362 0.793533
-1.137087 -3.139004 0.793573
-1.101064 -3.159611 0.768433
-1.101119 -3.180251 0.768471
-1.101172 -3.200889 0.768508
-1.065147 -3.221495 0.743366
-1.065196 -3.242131 0.743401
-1.065243 -3.262766 0.743434
-1.029214 -3.283373 0.718289
-1.029257 -3.304007 0.718319
-0.993224 -3.324616 0.693171
-0.993263 -3.345250 0.693199
-0.957224 -3.365861 0.668047
-0.957259 -3.386496 0.668071
-0.921214 -3.407112 0.642915
-0.921242 -3.427747 0.642935
-0.885190 -3.448368 0.617774
-0.885213 -3.469005 0.617790
-0.849153 -3.489631 0.592624
-0.849169 -3.510271 0.592635
-0.813099 -3.530904 0.567462
-0.777022 -3.551542 0.542284
-0.777028 -3.572187 0.542288
-0.740940 -3.592833 0.517103
-0.704845 -3.613485 0.491911
-0.704838 -3.634138 0.491907
-0.668730 -3.654800 0.466707
-0.632613 -3.675468 0.441501
-0.596486 -3.696144 0.416288
-0.596461 -3.716809 0.416270
-0.632541 -3.737459 0.441451
-0.668619 -3.758107 0.466629
-0.668585 -3.778774 0.466605
-0.704656 -3.799421 0.491780
-0.704617 -3.820091 0.491752
-0.471329 0.160357 0.355529
-0.436166 0.139618 0.329005
-0.436214 0.118849 0.329041
-0.471465 0.098057 0.355631
-0.471504 0.077295 0.355661
-0.471539 0.056535 0.355687
-0.471572 0.035776 0.355712
-0.471601 0.015020 0.355734
-0.506821 -0.005750 0.382301
-0.506842 -0.026502 0.382317
-0.542049 -0.047262 0.408874
-0.542063 -0.068010 0.408884
-0.542073 -0.088756 0.408892
-0.542082 -0.109501 0.408899
-0.542088 -0.130246 0.408903
-0.542091 -0.150990 0.408905
-0.542092 -0.171733 0.408906
-0.577265 -0.192473 0.435438
-0.577260 -0.213214 0.435434
-0.577253 -0.233955 0.435428
-0.577244 -0.254695 0.435421
-0.577232 -0.275435 0.435413
-0.577219 -0.296175 0.435403
-0.577204 -0.316915 0.435392
-0.577188 -0.337655 0.435379
-0.577170 -0.358396 0.435366
-0.577150 -0.379137 0.435351
-0.577128 -0.399878 0.435334
-0.577105 -0.420620 0.435317
-0.577081 -0.441362 0.435299
-0.577056 -0.462104 0.435280
-0.577030 -0.482848 0.435260
-0.577002 -0.503592 0.435239
-0.576973 -0.524337 0.435217
-0.576944 -0.545083 0.435195
-0.576913 -0.565829 0.435172
-0.576883 -0.586577 0.435149
-0.541702 -0.607345 0.408612
-0.541670 -0.628095 0.408588
-0.506492 -0.648865 0.382053
-0.506460 -0.669617 0.382029
-0.541574 -0.690350 0.408515
-0.541541 -0.711104 0.408490
-0.541507 -0.731859 0.408465
-0.541474 -0.752616 0.408440
-0.506300 -0.773393 0.381908
-0.506267 -0.794152 0.381883
-0.541374 -0.814891 0.408364
-0.541341 -0.835652 0.408340
-0.541308 -0.856415 0.408315
-0.541276 -0.877178 0.408290
-0.541243 -0.897943 0.408266
-0.611487 -0.918669 0.461252
-0.646594 -0.939416 0.487733
-0.611423 -0.960205 0.461203
-0.611392 -0.980976 0.461180
-0.576225 -1.001766 0.434653
-0.576196 -1.022538 0.434631
-0.541034 -1.043328 0.408108
-0.541008 -1.064102 0.408088
-0.540982 -1.084877 0.408069
-0.540957 -1.105653 0.408050
-0.540933 -1.126430 0.408032
-0.576041 -1.147194 0.434514
-0.576019 -1.167974 0.434497
-0.611129 -1.188742 0.460982
-0.611109 -1.209524 0.460967
-0.611091 -1.230308 0.460953
-0.611074 -1.251092 0.460940
-0.611058 -1.271877 0.460928
-0.611044 -1.292662 0.460917
-0.611031 -1.313449 0.460907
-0.611020 -1.334236 0.460899
-0.611010 -1.355023 0.460892
-0.611001 -1.375811 0.460885
-0.610995 -1.396600 0.460880
-0.610990 -1.417389 0.460877
-0.610987 -1.438178 0.460875
-0.610986 -1.458967 0.460873
-0.646115 -1.479758 0.487372
-0.646117 -1.500549 0.487373
-0.646120 -1.521340 0.487376
-0.681256 -1.542135 0.513879
-0.681264 -1.562927 0.513885
-0.681272 -1.583719 0.513891
-0.681283 -1.604511 0.513899
-0.681295 -1.625302 0.513909
-0.716442 -1.646103 0.540420
-0.681326 -1.666884 0.513932
-0.681344 -1.687675 0.513945
-0.681364 -1.708464 0.513960
-0.681386 -1.729254 0.513977
-0.681409 -1.750042 0.513995
-0.646308 -1.770813 0.487517
-0.646336 -1.791599 0.487538
-0.646365 -1.812384 0.487561
-0.716653 -1.833207 0.540579
-0.751818 -1.854013 0.567105
-0.751852 -1.874798 0.567131
-0.751888 -1.895581 0.567158
-0.751926 -1.916364 0.567186
-0.751966 -1.937145 0.567216
-0.752007 -1.957924 0.567248
-0.752050 -1.978702 0.567280
-0.752095 -1.999479 0.567314
-0.787274 -2.020283 0.593850
-0.787322 -2.041057 0.593886
-0.892789 -2.061920 0.673441
-0.998286 -2.082785 0.753018
-0.998335 -2.103559 0.753056
-1.139031 -2.124455 0.859184
-1.244600 -2.145319 0.938816
-1.315012 -2.166151 0.991928
-1.315060 -2.186924 0.991964
-1.315108 -2.207694 0.992001
-1.315158 -2.228461 0.992039
-1.315209 -2.249225 0.992077
-1.315261 -2.269987 0.992116
-1.315315 -2.290746 0.992157
-1.280192 -2.311468 0.965663
-1.280248 -2.332220 0.965705
-1.280305 -2.352970 0.965748
-1.280363 -2.373717 0.965792
-1.280422 -2.394460 0.965837
-1.280482 -2.415201 0.965882
-1.280542 -2.435938 0.965927
-1.280602 -2.456673 0.965973
-1.280664 -2.477404 0.966019
-1.280726 -2.498132 0.966066
-1.245627 -2.518818 0.939590
-1.245691 -2.539539 0.939639
-1.245757 -2.560257 0.939688
-1.245822 -2.580972 0.939737
-1.245887 -2.601684 0.939787
-1.245953 -2.622393 0.939836
-1.246019 -2.643098 0.939886
-1.210934 -2.663759 0.913421
-1.211001 -2.684458 0.913472
-1.211069 -2.705154 0.913523
-1.246284 -2.725888 0.940086
-1.246350 -2.746578 0.940136
-1.246415 -2.767264 0.940185
-1.246482 -2.787947 0.940235
-1.246547 -2.808628 0.940285
-1.246613 -2.829305 0.940334
-1.246677 -2.849979 0.940383
-1.211602 -2.870611 0.913925
-1.211667 -2.891279 0.913974
-1.211731 -2.911945 0.914023
-1.211794 -2.932609 0.914070
-1.176723 -2.953230 0.887616
-1.176786 -2.973888 0.887663
-1.176849 -2.994545 0.887710
-1.176910 -3.015198 0.887756
-1.176970 -3.035849 0.887802
-1.177029 -3.056498 0.887847
-1.141960 -3.077108 0.861393
-1.142017 -3.097754 0.861436
-1.106948 -3.118362 0.834984
-1.107004 -3.139004 0.835025
-1.071934 -3.159611 0.808572
-1.071987 -3.180251 0.808612
-1.072039 -3.200889 0.808651
-1.036967 -3.221495 0.782196
-1.037015 -3.242131 0.782232
-1.001940 -3.262738 0.755775
-1.001985 -3.283373 0.755809
-1.002027 -3.304007 0.755840
-0.966947 -3.324616 0.729379
-0.931864 -3.345227 0.702916
-0.931900 -3.365861 0.702942
-0.931933 -3.386496 0.702968
-0.896842 -3.407112 0.676498
-0.896870 -3.427747 0.676519
-0.861771 -3.448368 0.650044
-0.861794 -3.469005 0.650061
-0.826687 -3.489631 0.623580
-0.826703 -3.510271 0.623591
-0.791587 -3.530904 0.597103
-0.756465 -3.551542 0.570610
-0.756471 -3.572187 0.570614
-0.721338 -3.592833 0.544113
-0.721336 -3.613483 0.544112
-0.686191 -3.634138 0.517601
-0.651038 -3.654800 0.491085
-0.615876 -3.675468 0.464562
-0.580705 -3.696144 0.438033
-0.580681 -3.716809 0.438014
-0.650958 -3.737442 0.491025
-0.650929 -3.758107 0.491003
-0.650897 -3.778774 0.490979
-0.650861 -3.799444 0.490951
-0.419350 0.160388 0.350087
-0.419399 0.139618 0.350128
-0.419445 0.118849 0.350166
-0.419488 0.098083 0.350202
-0.419527 0.077318 0.350235
-0.453413 0.056535 0.378523
-0.453444 0.035776 0.378549
-0.453472 0.015020 0.378573
-0.453497 -0.005736 0.378594
-0.453519 -0.026489 0.378612
-0.487376 -0.047252 0.406877
-0.487391 -0.068001 0.406889
-0.521235 -0.088756 0.435144
-0.521244 -0.109501 0.435151
-0.521249 -0.130246 0.435155
-0.521252 -0.150990 0.435158
-0.521253 -0.171733 0.435159
-0.521252 -0.192475 0.435158
-0.521249 -0.213217 0.435155
-0.521243 -0.233959 0.435150
-0.521236 -0.254701 0.435144
-0.521226 -0.275442 0.435136
-0.521215 -0.296183 0.435127
-0.521202 -0.316924 0.435116
-0.555000 -0.337655 0.463331
-0.554982 -0.358396 0.463317
-0.554963 -0.379137 0.463301
-0.521133 -0.399891 0.435059
-0.521113 -0.420634 0.435041
-0.521091 -0.441377 0.435023
-0.554873 -0.462104 0.463226
-0.554848 -0.482848 0.463205
-0.554821 -0.503592 0.463182
-0.554793 -0.524337 0.463159
-0.554765 -0.545083 0.463136
-0.554736 -0.565829 0.463111
-0.520907 -0.586596 0.434870
-0.520878 -0.607345 0.434845
-0.487051 -0.628114 0.406606
-0.487022 -0.648865 0.406581
-0.486991 -0.669617 0.406556
-0.486961 -0.690370 0.406531
-0.520723 -0.711104 0.434716
-0.520691 -0.731859 0.434689
-0.554451 -0.752595 0.462873
-0.554418 -0.773352 0.462846
-0.520595 -0.794132 0.434609
-0.520563 -0.814891 0.434582
-0.520531 -0.835652 0.434556
-0.520500 -0.856415 0.434530
-0.520468 -0.877178 0.434503
-0.588013 -0.897902 0.490892
-0.587981 -0.918669 0.490865
-0.554162 -0.939456 0.462632
-0.554132 -0.960225 0.462607
-0.554103 -0.980995 0.462582
-0.520290 -1.001784 0.434355
-0.520263 -1.022555 0.434332
-0.520236 -1.043328 0.434310
-0.486430 -1.064118 0.406087
-0.486406 -1.084892 0.406068
-0.520162 -1.105653 0.434248
-0.520139 -1.126430 0.434229
-0.553897 -1.147194 0.462411
-0.553876 -1.167974 0.462393
-0.587637 -1.188742 0.490578
-0.587617 -1.209524 0.490562
-0.587600 -1.230308 0.490547
-0.621365 -1.251082 0.518736
-0.621350 -1.271867 0.518723
-0.587554 -1.292662 0.490509
-0.587542 -1.313449 0.490499
-0.587531 -1.334236 0.490490
-0.587522 -1.355023 0.490482
-0.587514 -1.375811 0.490475
-0.587507 -1.396600 0.490470
-0.587502 -1.417389 0.490466
-0.587500 -1.438178 0.490464
-0.587498 -1.458967 0.490462
-0.621277 -1.479758 0.518662
-0.621279 -1.500549 0.518663
-0.621282 -1.521340 0.518666
-0.621287 -1.542131 0.518670
-0.621294 -1.562922 0.518676
-0.621303 -1.583713 0.518684
-0.621314 -1.604503 0.518692
-0.621326 -1.625294 0.518703
-0.655119 -1.646093 0.546914
-0.655135 -1.666884 0.546927
-0.655152 -1.687675 0.546941
-0.655171 -1.708464 0.546957
-0.655192 -1.729254 0.546975
-0.688995 -1.750057 0.575195
-0.689020 -1.770846 0.575216
-0.689046 -1.791634 0.575237
-0.689074 -1.812421 0.575261
-0.722886 -1.833226 0.603488
-0.756702 -1.854033 0.631719
-0.756735 -1.874819 0.631746
-0.722985 -1.895581 0.603570
-0.723021 -1.916364 0.603601
-0.723059 -1.937145 0.603633
-0.723099 -1.957924 0.603666
-0.723140 -1.978702 0.603700
-0.756966 -1.999507 0.631939
-0.757010 -2.020283 0.631976
-0.790842 -2.041087 0.660220
-0.892264 -2.061950 0.744890
-0.993716 -2.082815 0.829585
-0.993762 -2.103590 0.829624
-1.095244 -2.124455 0.914345
-1.196756 -2.145319 0.999090
-1.264461 -2.166151 1.055612
-1.264507 -2.186924 1.055650
-1.264554 -2.207694 1.055689
-1.264602 -2.228461 1.055730
-1.264650 -2.249225 1.055770
-1.264700 -2.269987 1.055812
-1.264752 -2.290746 1.055855
-1.230979 -2.311468 1.027660
-1.231033 -2.332220 1.027706
-1.231088 -2.352970 1.027751
-1.231144 -2.373717 1.027798
-1.231200 -2.394460 1.027845
-1.231258 -2.415201 1.027893
-1.231315 -2.435938 1.027941
-1.231374 -2.456673 1.027990
-1.231433 -2.477404 1.028039
-1.265307 -2.498170 1.056319
-1.265366 -2.518896 1.056368
-1.231614 -2.539579 1.028190
-1.164062 -2.560217 0.971796
-1.164126 -2.580932 0.971850
-1.164191 -2.601643 0.971903
-1.198056 -2.622393 1.000175
-1.198120 -2.643098 1.000229
-1.198183 -2.663800 1.000281
-1.198247 -2.684500 1.000335
-1.198311 -2.705195 1.000388
-1.198375 -2.725888 1.000441
-1.198438 -2.746578 1.000494
-1.198501 -2.767264 1.000547
-1.198565 -2.787947 1.000600
-1.198628 -2.808628 1.000653
-1.198691 -2.829305 1.000705
-1.198753 -2.849979 1.000757
-1.198815 -2.870651 1.000809
-1.165089 -2.891279 0.972653
-1.165150 -2.911945 0.972704
-1.165211 -2.932609 0.972755
-1.165272 -2.953269 0.972806
-1.131549 -2.973888 0.944653
-1.131609 -2.994545 0.944703
-1.131668 -3.015198 0.944752
-1.097947 -3.035812 0.916601
-1.098005 -3.056461 0.916649
-1.098061 -3.077108 0.916696
-1.098116 -3.097754 0.916742
-1.064396 -3.118362 0.888591
-1.030676 -3.138970 0.860441
-1.030728 -3.159611 0.860484
-1.030778 -3.180251 0.860527
-1.030828 -3.200889 0.860568
-0.997104 -3.221495 0.832414
-0.997150 -3.242131 0.832453
-0.997195 -3.262766 0.832490
-0.963467 -3.283373 0.804333
-0.963507 -3.304007 0.804367
-0.929776 -3.324616 0.776206
-0.929813 -3.345250 0.776237
-0.896076 -3.365861 0.748073
-0.896108 -3.386496 0.748100
-0.862366 -3.407112 0.719930
-0.862393 -3.427747 0.719953
-0.828644 -3.448368 0.691778
-0.828665 -3.469005 0.691796
-0.794908 -3.489631 0.663615
-0.794923 -3.510271 0.663627
-0.761157 -3.530904 0.635438
-0.727386 -3.551542 0.607245
-0.727391 -3.572187 0.607249
-0.693609 -3.592833 0.579046
-0.659819 -3.613485 0.550838
-0.659813 -3.634138 0.550832
-0.626011 -3.654800 0.522614
-0.592201 -3.675468 0.494388
-0.558382 -3.696144 0.466155
-0.558358 -3.716809 0.466135
-0.592134 -3.737459 0.494332
-0.625907 -3.758107 0.522527
-0.659675 -3.778753 0.550718
-1.098790 -3.840478 0.917305
-1.166302 -3.861086 0.973666
-1.233805 -3.881690 1.030020
-1.267536 -3.902312 1.058179
-0.401610 0.139618 0.370398
-0.369232 0.118878 0.340536
-0.401695 0.098083 0.370476
-0.401733 0.077318 0.370510
-0.401768 0.056556 0.370542
-0.401799 0.035796 0.370572
-0.401828 0.015037 0.370598
-0.434262 -0.005736 0.400511
-0.434283 -0.026489 0.400531
-0.434302 -0.047241 0.400548
-0.466718 -0.068001 0.430445
-0.466730 -0.088749 0.430456
-0.466740 -0.109496 0.430465
-0.466746 -0.130242 0.430471
-0.499143 -0.150990 0.460350
-0.499144 -0.171733 0.460351
-0.499143 -0.192475 0.460350
-0.499140 -0.213217 0.460347
-0.499134 -0.233959 0.460342
-0.499128 -0.254701 0.460336
-0.499118 -0.275442 0.460327
-0.499108 -0.296183 0.460317
-0.499095 -0.316924 0.460305
-0.499081 -0.337666 0.460293
-0.499065 -0.358407 0.460278
-0.499048 -0.379149 0.460263
-0.499029 -0.399891 0.460245
-0.499010 -0.420634 0.460227
-0.498989 -0.441377 0.460208
-0.498966 -0.462120 0.460187
-0.498943 -0.482864 0.460166
-0.498919 -0.503609 0.460143
-0.498894 -0.524354 0.460120
-0.498867 -0.545101 0.460096
-0.498841 -0.565848 0.460071
-0.466448 -0.586614 0.430196
-0.466421 -0.607363 0.430171
-0.434030 -0.628132 0.400297
-0.434003 -0.648883 0.400272
-0.433975 -0.669636 0.400247
-0.433947 -0.690389 0.400221
-0.433918 -0.711144 0.400194
-0.433889 -0.731899 0.400168
-0.498575 -0.752616 0.459826
-0.498544 -0.773373 0.459798
-0.466157 -0.794152 0.429928
-0.466128 -0.814912 0.429901
-0.466098 -0.835672 0.429873
-0.498422 -0.856415 0.459685
-0.530747 -0.877158 0.489498
-0.530716 -0.897923 0.489469
-0.530686 -0.918689 0.489442
-0.530657 -0.939456 0.489415
-0.530629 -0.960225 0.489388
-0.498249 -0.981013 0.459526
-0.498222 -1.001784 0.459500
-0.465847 -1.022572 0.429642
-0.465823 -1.043344 0.429619
-0.465798 -1.064118 0.429597
-0.465775 -1.084892 0.429576
-0.498099 -1.105653 0.459387
-0.498077 -1.126430 0.459367
-0.530403 -1.147194 0.489181
-0.562732 -1.167961 0.518997
-0.562712 -1.188742 0.518978
-0.562694 -1.209524 0.518961
-0.562677 -1.230308 0.518946
-0.562661 -1.251092 0.518931
-0.594995 -1.271867 0.548753
-0.562633 -1.292662 0.518906
-0.562621 -1.313449 0.518895
-0.562611 -1.334236 0.518885
-0.562602 -1.355023 0.518877
-0.627292 -1.375802 0.578539
-0.659638 -1.396588 0.608371
-0.659632 -1.417380 0.608366
-0.627276 -1.438175 0.578525
-0.594926 -1.458967 0.548688
-0.594926 -1.479758 0.548688
-0.594927 -1.500549 0.548690
-0.594930 -1.521340 0.548693
-0.594935 -1.542131 0.548697
-0.594942 -1.562922 0.548704
-0.627297 -1.583719 0.578544
-0.627307 -1.604511 0.578553
-0.627319 -1.625302 0.578564
-0.627332 -1.646093 0.578576
-0.627347 -1.666884 0.578590
-0.659712 -1.687686 0.608440
-0.659730 -1.708477 0.608456
-0.659750 -1.729268 0.608475
-0.659772 -1.750057 0.608495
-0.659795 -1.770846 0.608516
-0.659820 -1.791634 0.608539
-0.692196 -1.812439 0.638399
-0.724577 -1.833246 0.668264
-0.724607 -1.854033 0.668291
-0.724638 -1.874819 0.668319
-0.724671 -1.895604 0.668350
-0.724705 -1.916388 0.668381
-0.692390 -1.937145 0.638578
-0.660081 -1.957898 0.608780
-0.660121 -1.978675 0.608817
-0.660163 -1.999451 0.608855
-0.692552 -2.020253 0.638727
-0.724946 -2.041057 0.668603
-0.822057 -2.061920 0.758167
-0.951567 -2.082815 0.877612
-1.048746 -2.103680 0.967238
-1.048790 -2.124455 0.967278
-1.113605 -2.145289 1.027056
-1.210829 -2.166151 1.116724
-1.210873 -2.186924 1.116764
-1.210917 -2.207694 1.116806
-1.210963 -2.228461 1.116848
-1.211010 -2.249225 1.116891
-1.211058 -2.269987 1.116935
-1.211107 -2.290746 1.116981
-1.211157 -2.311502 1.117026
-1.211207 -2.332255 1.117073
-1.178871 -2.352970 1.087250
-1.178925 -2.373717 1.087300
-1.178979 -2.394460 1.087349
-1.179034 -2.415201 1.087400
-1.179089 -2.435938 1.087451
-1.179145 -2.456673 1.087503
-1.179202 -2.477404 1.087555
-1.146882 -2.498093 1.057747
-1.146941 -2.518818 1.057801
-1.147000 -2.539539 1.057856
-1.147060 -2.560257 1.057911
-1.147120 -2.580972 1.057967
-1.147180 -2.601684 1.058022
-1.147241 -2.622393 1.058078
-1.147302 -2.643098 1.058134
-1.147362 -2.663800 1.058190
-1.179791 -2.684540 1.088098
-1.179850 -2.705236 1.088153
-1.179910 -2.725928 1.088208
-1.179970 -2.746618 1.088264
-1.180030 -2.767304 1.088318
-1.180089 -2.787988 1.088374
-1.180148 -2.808668 1.088428
-1.180207 -2.829345 1.088482
-1.180266 -2.850019 1.088536
-1.147967 -2.870651 1.058748
-1.115671 -2.891279 1.028962
-1.115730 -2.911945 1.029016
-1.115789 -2.932609 1.029070
-1.083496 -2.953230 0.999288
-1.083554 -2.973888 0.999341
-1.051265 -2.994506 0.969561
-1.051321 -3.015160 0.969613
-1.051377 -3.035812 0.969665
-1.019089 -3.056425 0.939886
-1.019144 -3.077072 0.939936
-1.019197 -3.097718 0.939986
-1.019249 -3.118362 0.940034
-0.986959 -3.138970 0.910254
-0.987009 -3.159611 0.910299
-0.987058 -3.180251 0.910344
-0.987105 -3.200889 0.910388
-0.954812 -3.221495 0.880605
-0.954856 -3.242131 0.880645
-0.954899 -3.262766 0.880685
-0.922602 -3.283373 0.850898
-0.922640 -3.304007 0.850933
-0.890339 -3.324616 0.821143
-0.890375 -3.345250 0.821175
-0.858069 -3.365861 0.791380
-0.825760 -3.386476 0.761583
-0.825788 -3.407112 0.761609
-0.825814 -3.427747 0.761632
-0.793497 -3.448368 0.731827
-0.793517 -3.469005 0.731845
-0.761192 -3.489631 0.702033
-0.761206 -3.510271 0.702046
-0.728873 -3.530904 0.672225
-0.696534 -3.551542 0.642399
-0.696538 -3.572187 0.642404
-0.664189 -3.592833 0.612569
-0.664187 -3.613483 0.612567
-0.631827 -3.634138 0.582721
-0.599458 -3.654800 0.552869
-0.567083 -3.675468 0.523009
-0.534698 -3.696144 0.493142
-0.534676 -3.716809 0.493121
-0.567019 -3.737459 0.522950
-0.631724 -3.758089 0.582627
-0.664059 -3.778734 0.612449
-0.696391 -3.799378 0.642268
-1.084496 -3.861106 1.000209
-1.149139 -3.881711 1.059828
-1.213773 -3.902312 1.119440
-0.321067 0.118909 0.326872
-0.352018 0.098110 0.358382
-0.352057 0.077343 0.358421
-0.382993 0.056556 0.389917
-0.383023 0.035796 0.389948
-0.383050 0.015037 0.389976
-0.383075 -0.005720 0.390001
-0.383098 -0.026475 0.390024
-0.414007 -0.047241 0.421492
-0.414023 -0.067992 0.421508
-0.414035 -0.088742 0.421521
-0.414046 -0.109490 0.421531
-0.444935 -0.130242 0.452979
-0.444940 -0.150988 0.452984
-0.444942 -0.171732 0.452987
-0.475818 -0.192475 0.484420
-0.475815 -0.213217 0.484417
-0.475810 -0.233959 0.484412
-0.475803 -0.254701 0.484405
-0.444924 -0.275448 0.452968
-0.444915 -0.296191 0.452959
-0.444905 -0.316933 0.452949
-0.475759 -0.337666 0.484360
-0.475744 -0.358407 0.484345
-0.506591 -0.379137 0.515750
-0.475710 -0.399891 0.484310
-0.475691 -0.420634 0.484291
-0.475671 -0.441377 0.484271
-0.475650 -0.462120 0.484249
-0.475628 -0.482864 0.484226
-0.475604 -0.503609 0.484203
-0.475580 -0.524354 0.484178
-0.475555 -0.545101 0.484153
-0.475530 -0.565848 0.484127
