0.667856 -2.393647 1.262768
0.667895 -2.412600 1.262842
0.667934 -2.431550 1.262915
0.667972 -2.450497 1.262988
0.668011 -2.469441 1.263061
0.647469 -2.488346 1.224221
0.647508 -2.507284 1.224294
0.647547 -2.526221 1.224367
0.647585 -2.545154 1.224440
0.647623 -2.564085 1.224512
0.647661 -2.583013 1.224583
0.647698 -2.601939 1.224653
0.627160 -2.620827 1.185820
0.627197 -2.639748 1.185890
0.627233 -2.658667 1.185959
0.627269 -2.677584 1.186026
0.606732 -2.696464 1.147196
0.627339 -2.715411 1.186159
0.627372 -2.734321 1.186222
0.627406 -2.753230 1.186285
0.627438 -2.772136 1.186346
0.606900 -2.791010 1.147513
0.606931 -2.809914 1.147572
0.586393 -2.828787 1.108739
0.586423 -2.847689 1.108796
0.586452 -2.866589 1.108850
0.565912 -2.885462 1.070013
0.565938 -2.904361 1.070064
0.545397 -2.923234 1.031225
0.545422 -2.942132 1.031272
0.524879 -2.961007 0.992429
0.524901 -2.979904 0.992471
0.524922 -2.998801 0.992510
0.524941 -3.017698 0.992547
0.524959 -3.036594 0.992582
0.504409 -3.055475 0.953725
0.483856 -3.074358 0.914865
0.483870 -3.093256 0.914891
0.463313 -3.112145 0.876022
0.463323 -3.131046 0.876041
0.442761 -3.149940 0.837163
0.442767 -3.168844 0.837175
0.422200 -3.187744 0.798287
0.401629 -3.206650 0.759392
0.381054 -3.225560 0.720489
0.360475 -3.244477 0.681578
0.339891 -3.263398 0.642658
0.319302 -3.282326 0.603729
0.319291 -3.301249 0.603709
0.298694 -3.320186 0.564765
0.339847 -3.339083 0.642576
0.360414 -3.357993 0.681463
0.401559 -3.376885 0.759259
0.442699 -3.395773 0.837046
0.504408 -3.414641 0.953725
0.566107 -3.433506 1.070383
0.648362 -3.452346 1.225909
0.380865 -3.471552 0.720131
0.401421 -3.490460 0.758998
0.401391 -3.509398 0.758941
0.401358 -3.528339 0.758879
0.031416 -0.168203 0.053232
0.009022 -0.187208 0.015286
0.009028 -0.206218 0.015297
0.031430 -0.225232 0.053255
0.031432 -0.244240 0.053259
0.053827 -0.263248 0.091204
0.053825 -0.282256 0.091201
0.076211 -0.301259 0.129132
0.076206 -0.320265 0.129123
0.098586 -0.339265 0.167044
0.120962 -0.358262 0.204957
0.120951 -0.377267 0.204940
0.143321 -0.396262 0.242843
0.143308 -0.415267 0.242821
0.143295 -0.434273 0.242798
0.165658 -0.453266 0.280691
0.165643 -0.472272 0.280665
0.188003 -0.491264 0.318551
0.210360 -0.510255 0.356434
0.210342 -0.529263 0.356403
0.232697 -0.548254 0.394282
0.232677 -0.567264 0.394248
0.232657 -0.586274 0.394214
0.232638 -0.605285 0.394181
0.232617 -0.624297 0.394147
0.232597 -0.643310 0.394113
0.232577 -0.662324 0.394078
0.254927 -0.681322 0.431948
0.277277 -0.700320 0.469818
0.277256 -0.719337 0.469783
0.277236 -0.738356 0.469748
0.277216 -0.757375 0.469714
0.277196 -0.776397 0.469680
0.277176 -0.795418 0.469647
0.277157 -0.814441 0.469615
0.277139 -0.833465 0.469583
0.277120 -0.852490 0.469552
0.277103 -0.871517 0.469523
0.299453 -0.890529 0.507393
0.299436 -0.909557 0.507364
0.321788 -0.928573 0.545236
0.299404 -0.947618 0.507310
0.321757 -0.966637 0.545184
0.321742 -0.985670 0.545160
0.321729 -1.004704 0.545137
0.299350 -1.023749 0.507218
0.299339 -1.042784 0.507199
0.299328 -1.061820 0.507180
0.299318 -1.080857 0.507164
0.321674 -1.099886 0.545044
0.321666 -1.118924 0.545030
0.321659 -1.137964 0.545018
0.321653 -1.157003 0.545008
0.299283 -1.176047 0.507105
0.299280 -1.195087 0.507099
0.299277 -1.214127 0.507094
0.299275 -1.233167 0.507091
0.299274 -1.252208 0.507090
0.299275 -1.271248 0.507091
0.321639 -1.290291 0.544984
0.321641 -1.309333 0.544988
0.321645 -1.328374 0.544995
0.321650 -1.347416 0.545003
0.321656 -1.366458 0.545013
0.321663 -1.385499 0.545025
0.321671 -1.404541 0.545040
0.321681 -1.423582 0.545056
0.321692 -1.442622 0.545074
0.344066 -1.461673 0.582985
0.366443 -1.480726 0.620901
0.366457 -1.499767 0.620924
0.366472 -1.518807 0.620950
0.366489 -1.537847 0.620978
0.366506 -1.556886 0.621007
0.366525 -1.575924 0.621039
0.366545 -1.594961 0.621073
0.366566 -1.613998 0.621108
0.388953 -1.633053 0.659041
0.388976 -1.652088 0.659080
0.411366 -1.671144 0.697019
0.411392 -1.690177 0.697061
0.433786 -1.709234 0.735006
0.456183 -1.728290 0.772956
0.456211 -1.747322 0.773004
0.478612 -1.766377 0.810959
0.478642 -1.785407 0.811010
0.478673 -1.804434 0.811062
0.501078 -1.823488 0.849025
0.568242 -1.842600 0.962829
0.635427 -1.861711 1.076666
0.635458 -1.880736 1.076720
0.725056 -1.899874 1.228534
0.814688 -1.919008 1.380407
0.792315 -1.938005 1.342498
0.792346 -1.957027 1.342550
0.792378 -1.976046 1.342604
0.792411 -1.995062 1.342659
0.792444 -2.014076 1.342715
0.792477 -2.033088 1.342773
0.792512 -2.052096 1.342831
0.770151 -2.071071 1.304942
0.770187 -2.090073 1.305004
0.747832 -2.109040 1.267125
0.770261 -2.128070 1.305129
0.770298 -2.147065 1.305192
0.747947 -2.166021 1.267320
0.747986 -2.185009 1.267386
0.748025 -2.203995 1.267453
0.748065 -2.222977 1.267521
0.748106 -2.241956 1.267589
0.748146 -2.260933 1.267657
0.748187 -2.279906 1.267726
0.748228 -2.298877 1.267796
0.748269 -2.317844 1.267866
0.725929 -2.336772 1.230013
0.725971 -2.355733 1.230084
0.726014 -2.374691 1.230156
0.726056 -2.393647 1.230227
0.726098 -2.412600 1.230299
0.726140 -2.431550 1.230370
0.726182 -2.450497 1.230441
0.726224 -2.469441 1.230512
0.726266 -2.488383 1.230583
0.726307 -2.507321 1.230653
0.726348 -2.526257 1.230723
0.726389 -2.545191 1.230793
0.726430 -2.564121 1.230861
0.726470 -2.583049 1.230929
0.726510 -2.601974 1.230997
0.726549 -2.620897 1.231063
0.704220 -2.639783 1.193229
0.704259 -2.658701 1.193295
0.704297 -2.677618 1.193360
0.704335 -2.696532 1.193424
0.704372 -2.715443 1.193486
0.682044 -2.734321 1.155654
0.659717 -2.753198 1.117823
0.659753 -2.772105 1.117884
0.659787 -2.791010 1.117943
0.659821 -2.809914 1.118000
0.659854 -2.828816 1.118056
0.637526 -2.847689 1.080222
0.637557 -2.866589 1.080275
0.637587 -2.885488 1.080326
0.637616 -2.904386 1.080375
0.615284 -2.923258 1.042536
0.592952 -2.942132 1.004696
0.592977 -2.961029 1.004740
0.593001 -2.979925 1.004781
0.593024 -2.998821 1.004819
0.570686 -3.017698 0.966970
0.548347 -3.036577 0.929118
0.548365 -3.055475 0.929148
0.526021 -3.074358 0.891289
0.526036 -3.093256 0.891314
0.503688 -3.112145 0.853447
0.481336 -3.131037 0.815575
0.481345 -3.149940 0.815590
0.458988 -3.168839 0.777708
0.458992 -3.187744 0.777715
0.436629 -3.206650 0.739823
0.436628 -3.225559 0.739822
0.414258 -3.244473 0.701918
0.391882 -3.263392 0.664004
0.369502 -3.282317 0.626083
0.347115 -3.301249 0.588151
0.347102 -3.320172 0.588128
0.369463 -3.339083 0.626017
0.391822 -3.357993 0.663902
0.414178 -3.376901 0.701783
0.481277 -3.395773 0.815475
0.548364 -3.414641 0.929148
0.749556 -3.471218 1.270047
0.771889 -3.490106 1.307888
0.009772 -0.187208 0.014818
0.009778 -0.206218 0.014828
0.009784 -0.225229 0.014836
0.034045 -0.244240 0.051628
0.058301 -0.263248 0.088410
0.058299 -0.282256 0.088407
0.082547 -0.301259 0.125177
0.106790 -0.320260 0.161940
0.106782 -0.339265 0.161927
0.106773 -0.358271 0.161914
0.131006 -0.377267 0.198662
0.155236 -0.396262 0.235405
0.179462 -0.415255 0.272142
0.179447 -0.434260 0.272119
0.179430 -0.453266 0.272094
0.179413 -0.472272 0.272068
0.203632 -0.491264 0.308794
0.203613 -0.510271 0.308766
0.252063 -0.529246 0.382237
0.252042 -0.548254 0.382205
0.252021 -0.567264 0.382173
0.251999 -0.586274 0.382140
0.251978 -0.605285 0.382107
0.251956 -0.624297 0.382074
0.251934 -0.643310 0.382041
0.251912 -0.662324 0.382008
0.276120 -0.681322 0.418718
0.300328 -0.700320 0.455428
0.300306 -0.719337 0.455394
0.300283 -0.738356 0.455360
0.300261 -0.757375 0.455327
0.300240 -0.776397 0.455294
0.300219 -0.795418 0.455262
0.324427 -0.814424 0.491972
0.324406 -0.833449 0.491940
0.324386 -0.852474 0.491910
0.324366 -0.871501 0.491880
0.324347 -0.890529 0.491852
0.324329 -0.909557 0.491824
0.324311 -0.928587 0.491797
0.324295 -0.947618 0.491772
0.348505 -0.966637 0.528486
0.348490 -0.985670 0.528462
0.348475 -1.004704 0.528440
0.348461 -1.023739 0.528419
0.324224 -1.042784 0.491664
0.324212 -1.061820 0.491646
0.324201 -1.080857 0.491630
0.299969 -1.099901 0.454884
0.299961 -1.118938 0.454871
0.299954 -1.137975 0.454860
0.324169 -1.157008 0.491581
0.324164 -1.176047 0.491573
0.324160 -1.195087 0.491567
0.324156 -1.214127 0.491562
0.324154 -1.233167 0.491559
0.324154 -1.252208 0.491558
0.324154 -1.271248 0.491559
0.324156 -1.290289 0.491562
0.324159 -1.309330 0.491566
0.324163 -1.328371 0.491573
0.324169 -1.347411 0.491581
0.348396 -1.366458 0.528320
0.372626 -1.385506 0.565063
0.372635 -1.404548 0.565077
0.372645 -1.423590 0.565092
0.372657 -1.442632 0.565109
0.372669 -1.461673 0.565129
0.372683 -1.480714 0.565150
0.372699 -1.499754 0.565173
0.372715 -1.518793 0.565198
0.396956 -1.537847 0.601958
0.421200 -1.556902 0.638722
0.421220 -1.575941 0.638752
0.445468 -1.594997 0.675523
0.469719 -1.614054 0.712298
0.493974 -1.633112 0.749079
0.518231 -1.652171 0.785864
0.518257 -1.671209 0.785902
0.518283 -1.690245 0.785942
0.494078 -1.709257 0.749237
0.494107 -1.728290 0.749281
0.494138 -1.747322 0.749327
0.542635 -1.766403 0.822870
0.518433 -1.785407 0.786169
0.518466 -1.804434 0.786220
0.591207 -1.823545 0.896527
0.663970 -1.842656 1.006867
0.688252 -1.861711 1.043689
0.688286 -1.880736 1.043741
0.736822 -1.899818 1.117342
0.809626 -1.918926 1.227744
0.858183 -1.938005 1.301379
0.809695 -1.956970 1.227849
0.809731 -1.975987 1.227904
0.809768 -1.995003 1.227959
0.809805 -2.014016 1.228016
0.809843 -2.033026 1.228074
0.809882 -2.052034 1.228132
0.809921 -2.071039 1.228192
0.809961 -2.090041 1.228253
0.785750 -2.109006 1.191538
0.785792 -2.128003 1.191602
0.810084 -2.147030 1.228439
0.810126 -2.166021 1.228503
0.810168 -2.185009 1.228567
0.810211 -2.203995 1.228632
0.810254 -2.222977 1.228698
0.834546 -2.241992 1.265534
0.810342 -2.260933 1.228830
0.810386 -2.279906 1.228897
0.810431 -2.298877 1.228965
0.810475 -2.317844 1.229032
0.810519 -2.336809 1.229100
0.786323 -2.355733 1.192408
0.786370 -2.374691 1.192478
0.786415 -2.393647 1.192547
0.810699 -2.412637 1.229372
0.786506 -2.431550 1.192685
0.786552 -2.450497 1.192754
0.810833 -2.469478 1.229575
0.786642 -2.488383 1.192892
0.810921 -2.507358 1.229709
0.810965 -2.526293 1.229775
0.786776 -2.545191 1.193095
0.786820 -2.564121 1.193161
0.786864 -2.583049 1.193227
0.786907 -2.601974 1.193293
0.786949 -2.620897 1.193357
0.786991 -2.639817 1.193421
0.762806 -2.658701 1.156746
0.762848 -2.677618 1.156808
0.738664 -2.696498 1.120135
0.690259 -2.715344 1.046732
0.690300 -2.734256 1.046794
0.690340 -2.753165 1.046855
0.690379 -2.772073 1.046914
0.714638 -2.791010 1.083701
0.714674 -2.809914 1.083757
0.690490 -2.828787 1.047083
0.690525 -2.847689 1.047136
0.690559 -2.866589 1.047188
0.666373 -2.885462 1.010511
0.666404 -2.904361 1.010558
0.666435 -2.923258 1.010605
0.642246 -2.942132 0.973923
0.642273 -2.961029 0.973966
0.642299 -2.979925 0.974005
0.642324 -2.998821 0.974042
0.618129 -3.017698 0.937353
0.618151 -3.036594 0.937385
0.593952 -3.055475 0.900689
0.593970 -3.074372 0.900717
0.593986 -3.093269 0.900741
0.569781 -3.112155 0.864036
0.545573 -3.131046 0.827325
0.545582 -3.149947 0.827340
0.521368 -3.168844 0.790620
0.497150 -3.187744 0.753895
0.472927 -3.206650 0.717163
0.472927 -3.225559 0.717162
0.448696 -3.244473 0.680419
0.424461 -3.263392 0.643667
0.400219 -3.282317 0.606906
0.375972 -3.301249 0.570137
0.375957 -3.320172 0.570114
0.400178 -3.339083 0.606843
0.448630 -3.357977 0.680318
0.472844 -3.376885 0.717037
0.521287 -3.395773 0.790498
0.593952 -3.414641 0.900689
0.666603 -3.433506 1.010860
0.715023 -3.452382 1.084285
0.763437 -3.471256 1.157702
-0.210444 -0.111199 -0.111304
-0.210452 -0.130205 -0.111308
-0.210458 -0.149211 -0.111311
-0.288360 -0.168217 -0.152513
-0.327300 -0.187216 -0.173109
-0.366233 -0.206213 -0.193700
-0.405160 -0.225206 -0.214289
-0.405144 -0.244205 -0.214280
-0.405126 -0.263205 -0.214271
-0.444040 -0.282194 -0.234852
-0.444018 -0.301193 -0.234841
-0.482923 -0.320180 -0.255418
-0.521824 -0.339165 -0.275992
-0.521795 -0.358164 -0.275977
-0.560690 -0.377148 -0.296548
-0.560657 -0.396148 -0.296531
-0.599548 -0.415131 -0.317100
-0.638436 -0.434114 -0.337668
-0.638399 -0.453115 -0.337648
-0.638361 -0.472118 -0.337629
-0.638322 -0.491122 -0.337608
-0.638284 -0.510127 -0.337588
-0.638244 -0.529133 -0.337567
-0.638204 -0.548141 -0.337546
-0.638165 -0.567149 -0.337525
-0.638125 -0.586159 -0.337503
-0.638084 -0.605170 -0.337482
-0.638044 -0.624182 -0.337461
-0.638004 -0.643195 -0.337440
-0.637964 -0.662210 -0.337419
-0.637924 -0.681225 -0.337398
-0.637886 -0.700243 -0.337377
-0.676762 -0.719241 -0.357939
-0.676723 -0.738261 -0.357918
-0.676685 -0.757282 -0.357898
-0.676647 -0.776305 -0.357878
-0.715526 -0.795310 -0.378441
-0.715490 -0.814335 -0.378422
-0.715454 -0.833362 -0.378403
-0.754338 -0.852372 -0.398968
-0.754303 -0.871402 -0.398950
-0.793191 -0.890416 -0.419518
-0.793159 -0.909449 -0.419501
-0.793128 -0.928483 -0.419485
-0.832021 -0.947503 -0.440055
-0.831992 -0.966540 -0.440040
-0.831965 -0.985578 -0.440026
-0.831939 -1.004617 -0.440012
-0.831915 -1.023657 -0.439999
-0.831892 -1.042699 -0.439987
-0.831870 -1.061741 -0.439975
-0.831851 -1.080784 -0.439965
-0.831832 -1.099827 -0.439955
-0.831816 -1.118872 -0.439946
-0.831801 -1.137917 -0.439939
-0.831788 -1.156963 -0.439932
-0.831776 -1.176010 -0.439926
-0.831767 -1.195057 -0.439921
-0.792839 -1.214108 -0.419332
-0.792833 -1.233155 -0.419329
-0.792830 -1.252202 -0.419327
-0.792828 -1.271250 -0.419326
-0.792829 -1.290298 -0.419326
-0.831749 -1.309347 -0.439911
-0.831754 -1.328396 -0.439914
-1.065358 -1.347464 -0.563467
-1.065365 -1.366519 -0.563470
-1.104321 -1.385579 -0.584074
-1.221202 -1.404650 -0.645893
-1.377103 -1.423732 -0.728348
-1.494079 -1.442812 -0.790217
-1.572087 -1.461889 -0.831475
-1.611104 -1.480960 -0.852112
-1.611119 -1.500026 -0.852119
-1.650142 -1.519099 -0.872758
-1.689169 -1.538172 -0.893400
-1.728201 -1.557245 -0.914044
-1.767236 -1.576319 -0.934689
-1.767255 -1.595382 -0.934699
-1.806295 -1.614455 -0.955347
-1.845337 -1.633528 -0.975997
-1.845359 -1.652589 -0.976008
-1.845381 -1.671649 -0.976020
-1.884427 -1.690719 -0.996672
-1.884450 -1.709776 -0.996684
-1.923498 -1.728844 -1.017336
-1.923522 -1.747898 -1.017349
-1.923548 -1.766950 -1.017363
-1.923575 -1.786000 -1.017377
-1.923602 -1.805048 -1.017391
-1.923630 -1.824094 -1.017406
-1.923659 -1.843138 -1.017421
-1.923689 -1.862179 -1.017437
-1.923720 -1.881218 -1.017453
-1.884740 -1.900238 -0.996837
-1.845766 -1.919253 -0.976224
-1.494901 -1.938084 -0.790652
-1.417015 -1.957054 -0.749458
-1.417069 -1.976074 -0.749486
-1.378165 -1.995062 -0.728910
-1.339268 -2.014046 -0.708338
-1.339328 -2.033057 -0.708369
-1.300440 -2.052034 -0.687802
-1.300504 -2.071039 -0.687835
-1.300568 -2.090041 -0.687869
-1.300633 -2.109040 -0.687904
-1.300699 -2.128037 -0.687938
-1.300766 -2.147030 -0.687974
-1.300833 -2.166021 -0.688009
-1.300901 -2.185009 -0.688045
-1.300970 -2.203995 -0.688082
-1.262106 -2.222941 -0.667527
-1.262177 -2.241920 -0.667564
-1.262250 -2.260896 -0.667603
-1.262321 -2.279869 -0.667641
-1.262394 -2.298840 -0.667679
-1.262467 -2.317807 -0.667717
-1.262540 -2.336772 -0.667756
-1.223692 -2.355696 -0.647210
-1.223767 -2.374654 -0.647249
-1.223841 -2.393610 -0.647288
-1.223916 -2.412562 -0.647328
-1.223990 -2.431512 -0.647367
-1.224065 -2.450459 -0.647407
-1.224139 -2.469404 -0.647446
-1.185303 -2.488307 -0.626905
-1.185377 -2.507247 -0.626945
-1.185451 -2.526183 -0.626984
-1.185525 -2.545117 -0.627023
-1.185598 -2.564048 -0.627061
-1.185670 -2.582976 -0.627100
-1.146840 -2.601866 -0.606563
-1.146912 -2.620790 -0.606600
-1.146983 -2.639712 -0.606638
-1.147052 -2.658632 -0.606675
-1.147121 -2.677549 -0.606711
-1.147188 -2.696464 -0.606747
-1.147255 -2.715378 -0.606782
-1.108426 -2.734256 -0.586245
-1.108490 -2.753165 -0.586279
-1.108553 -2.772073 -0.586312
-1.069723 -2.790949 -0.565776
-1.069783 -2.809854 -0.565807
-1.069842 -2.828758 -0.565838
-1.031010 -2.847632 -0.545300
-1.031065 -2.866535 -0.545329
-1.031118 -2.885435 -0.545357
-0.992281 -2.904310 -0.524817
-0.992331 -2.923209 -0.524843
-0.953490 -2.942085 -0.504300
-0.953535 -2.960985 -0.504324
-0.914689 -2.979863 -0.483778
-0.914729 -2.998762 -0.483799
-0.914765 -3.017662 -0.483819
-0.875910 -3.036544 -0.463268
-0.837051 -3.055429 -0.442715
-0.837078 -3.074331 -0.442730
-0.798210 -3.093221 -0.422172
-0.798231 -3.112125 -0.422184
-0.759352 -3.131021 -0.401621
-0.720468 -3.149921 -0.381055
-0.720477 -3.168830 -0.381060
-0.681581 -3.187737 -0.360487
-0.681582 -3.206649 -0.360488
-0.642672 -3.225565 -0.339909
-0.564840 -3.244492 -0.298743
-0.525908 -3.263422 -0.278152
-0.525888 -3.282346 -0.278142
-0.525865 -3.301272 -0.278130
-0.564761 -3.320186 -0.298701
-0.603653 -3.339098 -0.319271
-0.642541 -3.358009 -0.339839
-0.603585 -3.376956 -0.319236
-0.564618 -3.395909 -0.298626
-0.564573 -3.414845 -0.298602
-0.642330 -3.452669 -0.339728
-0.642276 -3.471608 -0.339699
-0.642217 -3.490549 -0.339668
-0.642154 -3.509493 -0.339635
-0.642087 -3.528440 -0.339599
0.010505 -0.206218 0.014323
0.010510 -0.225229 0.014330
0.010515 -0.244239 0.014336
0.036575 -0.263249 0.049870
0.062629 -0.282256 0.085395
0.062626 -0.301263 0.085390
0.088672 -0.320265 0.120903
0.088665 -0.339272 0.120893
0.114703 -0.358271 0.156396
0.140736 -0.377267 0.191892
0.166765 -0.396262 0.227383
0.192791 -0.415255 0.262868
0.192774 -0.434260 0.262846
0.192757 -0.453266 0.262822
0.218776 -0.472257 0.298298
0.218756 -0.491264 0.298271
0.244771 -0.510255 0.333743
0.270784 -0.529246 0.369211
0.270762 -0.548254 0.369180
0.270739 -0.567264 0.369149
0.270715 -0.586274 0.369117
0.270692 -0.605285 0.369086
0.270669 -0.624297 0.369054
0.296676 -0.643292 0.404514
0.322683 -0.662288 0.439974
0.322659 -0.681303 0.439941
0.322634 -0.700320 0.439908
0.322610 -0.719337 0.439875
0.322586 -0.738356 0.439842
0.322562 -0.757375 0.439810
0.322539 -0.776397 0.439779
0.322517 -0.795418 0.439748
0.322495 -0.814441 0.439718
0.322473 -0.833465 0.439688
0.322452 -0.852490 0.439659
0.348457 -0.871501 0.475118
0.348437 -0.890529 0.475090
0.374445 -0.909543 0.510551
0.374425 -0.928573 0.510525
0.374407 -0.947604 0.510500
0.374389 -0.966637 0.510476
0.374373 -0.985670 0.510453
0.374357 -1.004704 0.510431
0.400369 -1.023728 0.545898
0.400355 -1.042764 0.545879
0.400342 -1.061801 0.545861
0.374304 -1.080848 0.510359
0.374293 -1.099886 0.510345
0.348261 -1.118931 0.474850
0.348253 -1.137969 0.474839
0.348246 -1.157008 0.474829
0.348240 -1.176047 0.474821
0.348236 -1.195087 0.474815
0.348232 -1.214127 0.474810
0.348230 -1.233167 0.474808
0.374250 -1.252207 0.510286
0.348230 -1.271248 0.474808
0.348232 -1.290289 0.474810
0.374255 -1.309333 0.510293
0.374260 -1.328374 0.510299
0.374265 -1.347416 0.510306
0.400294 -1.366464 0.545796
0.400302 -1.385506 0.545807
0.400311 -1.404548 0.545820
0.400322 -1.423590 0.545835
0.426358 -1.442642 0.581334
0.426371 -1.461684 0.581352
0.426386 -1.480726 0.581372
0.426402 -1.499767 0.581394
0.426419 -1.518807 0.581418
0.426439 -1.537847 0.581444
0.478510 -1.556918 0.652442
0.478531 -1.575958 0.652471
0.478553 -1.594997 0.652502
0.504606 -1.614054 0.688025
0.530662 -1.633112 0.723551
0.556721 -1.652171 0.759083
0.556749 -1.671209 0.759120
0.556777 -1.690245 0.759159
0.556807 -1.709280 0.759200
0.556837 -1.728314 0.759241
0.530838 -1.747322 0.723792
0.556903 -1.766377 0.759331
0.609008 -1.785460 0.830375
0.661123 -1.804543 0.901434
0.687202 -1.823600 0.936992
0.765385 -1.842710 1.043593
0.791474 -1.861766 1.079166
0.765457 -1.880765 1.043692
0.843661 -1.899874 1.150322
0.947955 -1.919008 1.292525
0.947989 -1.938032 1.292572
0.948025 -1.957054 1.292621
0.948061 -1.976074 1.292670
0.948098 -1.995091 1.292720
0.948135 -2.014106 1.292772
0.948174 -2.033117 1.292824
0.948213 -2.052127 1.292877
0.922191 -2.071102 1.257397
0.922232 -2.090106 1.257453
0.922274 -2.109106 1.257510
0.922316 -2.128103 1.257568
0.922359 -2.147098 1.257626
0.922402 -2.166090 1.257685
0.922446 -2.185078 1.257745
0.922490 -2.204064 1.257805
0.922535 -2.223047 1.257866
0.922580 -2.242027 1.257927
0.922625 -2.261003 1.257988
0.922671 -2.279977 1.258051
0.922716 -2.298948 1.258113
0.896715 -2.317880 1.222661
0.896762 -2.336845 1.222725
0.896810 -2.355806 1.222790
0.896857 -2.374765 1.222854
0.896904 -2.393721 1.222918
0.896951 -2.412673 1.222982
0.896998 -2.431623 1.223047
0.871007 -2.450534 1.187608
0.871055 -2.469478 1.187674
0.871102 -2.488419 1.187738
0.871150 -2.507358 1.187803
0.845164 -2.526257 1.152371
0.845212 -2.545191 1.152436
0.845259 -2.564121 1.152500
0.845305 -2.583049 1.152564
0.845352 -2.601974 1.152628
0.845397 -2.620897 1.152690
0.819416 -2.639783 1.117264
0.819461 -2.658701 1.117326
0.819506 -2.677618 1.117387
0.819550 -2.696532 1.117446
0.793570 -2.715411 1.082023
0.793612 -2.734321 1.082081
0.793654 -2.753230 1.082139
0.793695 -2.772136 1.082194
0.767715 -2.791010 1.046770
0.767754 -2.809914 1.046824
0.767793 -2.828816 1.046876
0.767830 -2.847717 1.046927
0.741848 -2.866589 1.011501
0.741883 -2.885488 1.011549
0.741917 -2.904386 1.011595
0.715932 -2.923258 0.976165
0.715963 -2.942155 0.976207
0.689976 -2.961029 0.940775
0.690004 -2.979925 0.940813
0.664014 -2.998801 0.905375
0.664039 -3.017698 0.905409
0.664062 -3.036594 0.905441
0.638066 -3.055475 0.869996
0.638085 -3.074372 0.870022
0.612085 -3.093256 0.834570
0.612100 -3.112155 0.834591
0.586093 -3.131046 0.799131
0.560083 -3.149940 0.763666
0.560091 -3.168844 0.763677
0.534074 -3.187744 0.728203
0.508052 -3.206650 0.692723
0.508052 -3.225559 0.692723
0.482022 -3.244473 0.657231
0.455986 -3.263392 0.621732
0.429944 -3.282317 0.586224
0.403896 -3.301249 0.550708
0.403880 -3.320172 0.550686
0.429899 -3.339083 0.586163
0.455916 -3.357993 0.621636
0.507963 -3.376885 0.692602
0.560004 -3.395773 0.763560
0.612039 -3.414659 0.834508
0.011205 -0.206218 0.013782
0.011211 -0.225229 0.013789
0.011215 -0.244239 0.013795
0.039013 -0.263249 0.047987
0.066804 -0.282256 0.082170
0.039011 -0.301265 0.047983
0.094582 -0.320265 0.116337
0.122359 -0.339265 0.150503
0.122348 -0.358271 0.150490
0.150117 -0.377267 0.184646
0.177881 -0.396262 0.218796
0.205642 -0.415255 0.252942
0.205624 -0.434260 0.252920
0.233379 -0.453252 0.287059
0.233359 -0.472257 0.287034
0.261109 -0.491248 0.321168
0.288857 -0.510239 0.355299
0.288834 -0.529246 0.355269
0.288809 -0.548254 0.355239
0.288785 -0.567264 0.355209
0.288760 -0.586274 0.355179
0.288735 -0.605285 0.355149
0.288710 -0.624297 0.355118
0.316451 -0.643292 0.389239
0.316426 -0.662306 0.389208
0.344166 -0.681303 0.423328
0.344140 -0.700320 0.423296
0.344114 -0.719337 0.423264
0.344088 -0.738356 0.423233
0.344063 -0.757375 0.423202
0.344038 -0.776397 0.423172
0.344014 -0.795418 0.423142
0.343991 -0.814441 0.423113
0.343967 -0.833465 0.423085
0.343945 -0.852490 0.423057
0.343923 -0.871517 0.423030
0.399425 -0.890513 0.491298
0.399403 -0.909543 0.491272
0.399383 -0.928573 0.491246
0.399363 -0.947604 0.491222
0.399345 -0.966637 0.491199
0.399327 -0.985670 0.491177
0.399310 -1.004704 0.491157
0.399294 -1.023739 0.491137
0.371521 -1.042784 0.456976
0.371507 -1.061820 0.456959
0.371495 -1.080857 0.456944
0.371484 -1.099894 0.456931
0.371474 -1.118931 0.456918
0.371466 -1.137969 0.456908
0.371458 -1.157008 0.456899
0.371452 -1.176047 0.456891
0.371448 -1.195087 0.456886
0.371444 -1.214127 0.456881
0.371441 -1.233167 0.456878
0.371441 -1.252208 0.456877
0.371441 -1.271248 0.456878
0.371444 -1.290289 0.456881
0.371447 -1.309330 0.456885
0.371452 -1.328371 0.456891
0.399212 -1.347416 0.491036
0.399219 -1.366458 0.491045
0.426984 -1.385506 0.525196
0.426994 -1.404548 0.525209
0.427006 -1.423590 0.525223
0.454777 -1.442642 0.559382
0.454791 -1.461684 0.559399
0.510329 -1.480749 0.627712
0.510346 -1.499792 0.627732
0.482602 -1.518821 0.593607
0.482622 -1.537862 0.593632
0.454885 -1.556886 0.559515
0.454908 -1.575924 0.559543
0.454933 -1.594961 0.559574
0.482717 -1.614017 0.593748
0.482744 -1.633053 0.593782
0.510533 -1.652109 0.627962
0.510563 -1.671144 0.627999
0.566121 -1.690223 0.696337
0.593921 -1.709280 0.730531
0.621724 -1.728338 0.764729
0.621758 -1.747372 0.764771
0.649565 -1.766429 0.798974
0.649601 -1.785460 0.799019
0.649639 -1.804489 0.799065
0.649678 -1.823517 0.799113
0.788614 -1.842683 0.970006
0.816440 -1.861738 1.004232
0.844269 -1.880793 1.038462
0.872100 -1.899846 1.072695
1.011141 -1.919008 1.243717
1.011178 -1.938032 1.243763
1.011216 -1.957054 1.243809
1.011254 -1.976074 1.243857
1.011294 -1.995091 1.243905
1.011334 -2.014106 1.243954
1.011375 -2.033117 1.244005
1.011417 -2.052127 1.244056
1.011459 -2.071133 1.244108
1.011502 -2.090137 1.244161
0.983749 -2.109106 1.210024
0.983794 -2.128103 1.210080
0.983839 -2.147098 1.210135
0.983886 -2.166090 1.210193
0.983932 -2.185078 1.210250
0.983980 -2.204064 1.210308
0.984027 -2.223047 1.210367
0.984075 -2.242027 1.210425
0.984123 -2.261003 1.210485
0.984172 -2.279977 1.210545
0.956436 -2.298913 1.176430
0.956486 -2.317880 1.176491
0.956536 -2.336845 1.176553
0.956587 -2.355806 1.176615
0.956637 -2.374765 1.176677
0.956688 -2.393721 1.176739
0.956738 -2.412673 1.176800
0.956789 -2.431623 1.176863
0.956839 -2.450570 1.176924
0.929116 -2.469478 1.142825
0.929166 -2.488419 1.142887
0.929217 -2.507358 1.142949
0.929267 -2.526293 1.143011
0.929317 -2.545227 1.143072
0.901600 -2.564121 1.108980
0.901650 -2.583049 1.109041
0.901699 -2.601974 1.109102
0.901748 -2.620897 1.109162
0.874034 -2.639783 1.075074
0.874083 -2.658701 1.075134
0.874130 -2.677618 1.075192
0.874177 -2.696532 1.075250
0.874223 -2.715443 1.075306
0.874268 -2.734353 1.075362
0.846556 -2.753230 1.041275
0.846599 -2.772136 1.041329
0.818888 -2.791010 1.007243
0.818930 -2.809914 1.007294
0.791217 -2.828787 0.973208
0.791258 -2.847689 0.973258
0.791297 -2.866589 0.973305
0.763582 -2.885462 0.939216
0.763618 -2.904361 0.939261
0.763653 -2.923258 0.939303
0.763686 -2.942155 0.939344
0.735967 -2.961029 0.905249
0.735997 -2.979925 0.905286
0.736025 -2.998821 0.905321
0.736052 -3.017716 0.905354
0.708325 -3.036594 0.871250
0.680597 -3.055475 0.837143
0.680617 -3.074372 0.837169
0.680636 -3.093269 0.837191
0.652900 -3.112155 0.803075
0.625160 -3.131046 0.768955
0.597416 -3.149940 0.734829
0.597424 -3.168844 0.734840
0.569673 -3.187744 0.700705
0.541917 -3.206650 0.666565
0.541916 -3.225559 0.666564
0.514151 -3.244473 0.632413
0.486380 -3.263392 0.598254
0.458603 -3.282317 0.564087
0.458590 -3.301238 0.564071
0.430801 -3.320172 0.529891
0.458555 -3.339083 0.564028
0.486305 -3.357993 0.598162
0.541822 -3.376885 0.666448
0.597332 -3.395773 0.734726
0.652835 -3.414659 0.802996
0.847105 -3.433455 1.041951
0.874832 -3.452346 1.076055
0.902555 -3.471236 1.110155
0.930275 -3.490126 1.144251
-0.017594 -0.206213 -0.019563
-0.017585 -0.225224 -0.019554
0.011888 -0.244239 0.013219
0.011891 -0.263248 0.013222
0.041354 -0.282257 0.045984
0.070809 -0.301263 0.078737
0.100258 -0.320265 0.111483
0.129701 -0.339265 0.144223
0.129690 -0.358271 0.144211
0.159126 -0.377267 0.176942
0.188556 -0.396262 0.209667
0.217982 -0.415255 0.242388
0.217963 -0.434260 0.242367
0.247384 -0.453252 0.275082
0.276802 -0.472242 0.307793
0.306216 -0.491232 0.340501
0.306192 -0.510239 0.340474
0.306166 -0.529246 0.340446
0.306141 -0.548254 0.340417
0.306115 -0.567264 0.340388
0.335523 -0.586256 0.373089
0.364930 -0.605249 0.405789
0.394337 -0.624242 0.438488
0.394308 -0.643255 0.438456
0.394280 -0.662269 0.438424
0.394251 -0.681284 0.438393
0.394223 -0.700301 0.438361
0.394195 -0.719319 0.438331
0.364737 -0.738356 0.405574
0.364710 -0.757375 0.405544
0.364684 -0.776397 0.405515
0.364658 -0.795418 0.405486
0.364634 -0.814441 0.405459
0.335183 -0.833482 0.372711
0.364585 -0.852490 0.405405
0.423417 -0.871485 0.470824
0.423394 -0.890513 0.470798
0.423371 -0.909543 0.470773
0.423350 -0.928573 0.470749
0.393902 -0.947618 0.438004
0.393883 -0.966649 0.437983
0.393864 -0.985682 0.437962
0.393847 -1.004715 0.437943
0.393830 -1.023749 0.437925
0.393815 -1.042784 0.437908
0.393801 -1.061820 0.437892
0.393788 -1.080857 0.437878
0.393777 -1.099894 0.437865
0.393766 -1.118931 0.437854
0.393757 -1.137969 0.437843
0.393749 -1.157008 0.437835
0.364323 -1.176051 0.405113
0.364318 -1.195090 0.405108
0.393734 -1.214127 0.437817
0.393732 -1.233167 0.437815
0.393731 -1.252208 0.437814
0.393732 -1.271248 0.437815
0.393734 -1.290289 0.437817
0.423157 -1.309333 0.470535
0.452584 -1.328378 0.503257
0.452591 -1.347421 0.503264
0.452598 -1.366464 0.503273
0.452607 -1.385506 0.503283
0.482042 -1.404556 0.536013
0.482054 -1.423599 0.536026
0.482068 -1.442642 0.536042
0.482083 -1.461684 0.536058
0.511525 -1.480737 0.568797
0.511543 -1.499780 0.568817
0.482138 -1.518807 0.536119
0.511584 -1.537862 0.568863
0.482182 -1.556886 0.536169
0.482207 -1.575924 0.536196
0.482233 -1.594961 0.536225
0.482261 -1.613998 0.536256
0.511713 -1.633053 0.569006
0.570599 -1.652130 0.634485
0.570630 -1.671166 0.634519
0.600094 -1.690223 0.667282
0.629562 -1.709280 0.700050
0.629597 -1.728314 0.700088
0.629633 -1.747347 0.700129
0.659107 -1.766403 0.732902
0.659145 -1.785434 0.732945
0.659186 -1.804462 0.732990
0.659227 -1.823488 0.733036
0.777036 -1.842628 0.864035
0.835979 -1.861711 0.929578
0.894933 -1.880793 0.995132
0.953898 -1.899874 1.060699
1.012873 -1.918954 1.126278
1.101335 -1.938059 1.224644
1.071899 -1.957054 1.191912
1.071939 -1.976074 1.191957
1.071981 -1.995091 1.192003
1.072024 -2.014106 1.192051
1.072067 -2.033117 1.192099
1.072111 -2.052127 1.192148
1.072156 -2.071133 1.192198
1.072201 -2.090137 1.192248
1.072247 -2.109137 1.192299
1.042831 -2.128103 1.159589
1.042879 -2.147098 1.159643
1.042928 -2.166090 1.159697
1.042978 -2.185078 1.159752
1.043028 -2.204064 1.159808
1.043078 -2.223047 1.159864
1.043129 -2.242027 1.159921
1.043180 -2.261003 1.159977
1.043231 -2.279977 1.160035
1.043283 -2.298948 1.160092
1.013884 -2.317880 1.127402
1.013938 -2.336845 1.127461
1.013991 -2.355806 1.127521
1.014045 -2.374765 1.127580
1.014098 -2.393721 1.127640
1.014151 -2.412673 1.127699
1.014205 -2.431623 1.127758
0.984817 -2.450534 1.095080
0.984872 -2.469478 1.095141
0.984925 -2.488419 1.095200
0.984979 -2.507358 1.095260
0.985032 -2.526293 1.095319
0.985085 -2.545227 1.095378
0.985138 -2.564157 1.095436
0.985189 -2.583084 1.095494
0.955810 -2.601974 1.062825
0.955861 -2.620897 1.062883
0.955913 -2.639817 1.062939
0.926536 -2.658701 1.030274
0.926587 -2.677618 1.030330
0.926636 -2.696532 1.030385
0.926685 -2.715443 1.030439
0.897310 -2.734321 0.997775
0.897357 -2.753230 0.997828
0.897403 -2.772136 0.997879
0.897449 -2.791041 0.997930
0.868073 -2.809914 0.965265
0.868116 -2.828816 0.965313
0.868158 -2.847717 0.965360
0.838782 -2.866589 0.932694
0.838821 -2.885488 0.932738
0.838859 -2.904386 0.932780
0.809479 -2.923258 0.900111
0.809515 -2.942155 0.900150
0.780132 -2.961029 0.867478
0.780164 -2.979925 0.867513
0.780193 -2.998821 0.867546
0.750806 -3.017698 0.834868
0.750832 -3.036594 0.834897
0.721439 -3.055475 0.802213
0.721461 -3.074372 0.802238
0.692063 -3.093256 0.769548
0.692080 -3.112155 0.769567
0.662675 -3.131046 0.736870
0.662687 -3.149947 0.736883
0.633275 -3.168844 0.704179
0.603859 -3.187744 0.671468
0.574437 -3.206650 0.638753
0.574436 -3.225559 0.638752
0.545005 -3.244473 0.606026
0.515567 -3.263392 0.573292
0.486123 -3.282317 0.540551
0.486109 -3.301238 0.540536
0.456653 -3.320172 0.507782
0.456632 -3.339098 0.507758
0.515488 -3.357993 0.573204
0.544901 -3.376901 0.605909
0.574311 -3.395809 0.638612
0.927355 -3.433439 1.031185
0.927330 -3.452346 1.031157
0.927302 -3.471256 1.031126
0.927272 -3.490168 1.031092
-0.018537 -0.225224 -0.018654
-0.018530 -0.244235 -0.018647
0.012535 -0.263248 0.012614
0.043592 -0.282257 0.043868
0.074642 -0.301263 0.075114
0.105685 -0.320265 0.106352
0.136722 -0.339265 0.137586
0.167754 -0.358262 0.168813
0.198780 -0.377257 0.200035
0.229801 -0.396250 0.231252
0.229782 -0.415255 0.231233
0.229762 -0.434260 0.231213
0.260775 -0.453252 0.262422
0.291785 -0.472242 0.293628
0.291760 -0.491248 0.293603
0.322766 -0.510239 0.324804
0.322739 -0.529246 0.324778
0.322712 -0.548254 0.324750
0.322685 -0.567264 0.324723
0.353685 -0.586256 0.355918
0.353656 -0.605267 0.355890
0.353628 -0.624279 0.355861
0.353599 -0.643292 0.355832
0.353570 -0.662306 0.355803
0.384567 -0.681303 0.386995
0.384537 -0.700320 0.386966
0.415533 -0.719319 0.418158
0.384480 -0.738356 0.386908
0.384452 -0.757375 0.386880
0.384424 -0.776397 0.386852
0.384397 -0.795418 0.386825
0.384371 -0.814441 0.386799
0.415366 -0.833449 0.417989
0.415341 -0.852474 0.417964
0.446337 -0.871485 0.449156
0.446312 -0.890513 0.449131
0.446289 -0.909543 0.449107
0.446266 -0.928573 0.449084
0.446244 -0.947604 0.449062
0.446223 -0.966637 0.449041
0.415184 -0.985682 0.417806
0.415166 -1.004715 0.417788
0.415148 -1.023749 0.417770
0.415133 -1.042784 0.417755
0.415118 -1.061820 0.417739
0.415104 -1.080857 0.417726
0.415092 -1.099894 0.417714
0.415081 -1.118931 0.417703
0.415071 -1.137969 0.417693
0.415063 -1.157008 0.417684
0.415056 -1.176047 0.417678
0.446065 -1.195084 0.448882
0.477078 -1.214123 0.480091
0.446059 -1.233166 0.448876
0.446057 -1.252207 0.448874
0.415044 -1.271248 0.417666
0.415047 -1.290289 0.417668
0.446063 -1.309333 0.448880
0.477083 -1.328378 0.480096
0.508107 -1.347425 0.511316
0.508115 -1.366469 0.511324
0.508124 -1.385513 0.511333
0.508135 -1.404556 0.511344
0.508148 -1.423599 0.511357
0.539181 -1.442652 0.542587
0.570218 -1.461705 0.573820
0.601260 -1.480760 0.605058
0.601279 -1.499805 0.605076
0.601299 -1.518848 0.605096
0.632348 -1.537906 0.636341
0.601344 -1.556933 0.605142
0.570346 -1.575958 0.573948
0.539353 -1.594980 0.542760
0.508366 -1.613998 0.511576
0.539413 -1.633053 0.542819
0.570464 -1.652109 0.574066
0.570497 -1.671144 0.574100
0.601553 -1.690200 0.605352
0.601589 -1.709234 0.605388
0.632650 -1.728290 0.636646
0.632689 -1.747322 0.636685
0.632730 -1.766351 0.636726
0.632771 -1.785380 0.636768
0.663839 -1.804434 0.668032
0.694912 -1.823488 0.699300
0.912238 -1.842710 0.917999
0.974389 -1.861793 0.980543
0.974432 -1.880821 0.980586
0.974475 -1.899846 0.980629
1.067701 -1.918954 1.074444
1.129879 -1.938032 1.137014
1.129921 -1.957054 1.137057
1.129964 -1.976074 1.137100
1.161077 -1.995119 1.168410
1.161121 -2.014134 1.168454
1.161166 -2.033147 1.168499
1.161211 -2.052156 1.168544
1.161257 -2.071163 1.168591
1.161304 -2.090167 1.168638
1.130289 -2.109137 1.137427
1.130338 -2.128135 1.137477
1.099330 -2.147098 1.106273
1.099382 -2.166090 1.106325
1.099434 -2.185078 1.106378
1.099487 -2.204064 1.106431
1.099541 -2.223047 1.106485
1.099594 -2.242027 1.106538
1.099648 -2.261003 1.106592
1.099702 -2.279977 1.106647
1.099757 -2.298948 1.106702
1.099811 -2.317916 1.106757
1.099866 -2.336880 1.106812
1.099921 -2.355842 1.106868
1.068935 -2.374765 1.075686
1.068992 -2.393721 1.075743
1.069048 -2.412673 1.075799
1.069104 -2.431623 1.075856
1.069160 -2.450570 1.075912
1.069216 -2.469514 1.075968
1.069271 -2.488455 1.076024
1.038296 -2.507358 1.044853
1.038352 -2.526293 1.044910
1.007381 -2.545191 1.013743
1.007437 -2.564121 1.013800
1.007493 -2.583049 1.013856
1.007548 -2.601974 1.013912
1.007603 -2.620897 1.013966
1.007657 -2.639817 1.014020
0.976690 -2.658701 0.982858
0.976743 -2.677618 0.982912
0.976795 -2.696532 0.982964
0.976847 -2.715443 0.983016
0.945881 -2.734321 0.951855
0.945932 -2.753230 0.951906
0.945980 -2.772136 0.951955
0.915015 -2.791010 0.920794
0.915062 -2.809914 0.920841
0.915108 -2.828816 0.920887
0.915152 -2.847717 0.920932
0.884185 -2.866589 0.889769
0.884227 -2.885488 0.889811
0.853258 -2.904361 0.858647
0.853297 -2.923258 0.858686
0.853334 -2.942155 0.858723
0.822361 -2.961029 0.827555
0.822394 -2.979925 0.827588
0.822426 -2.998821 0.827620
0.791447 -3.017698 0.796445
0.791475 -3.036594 0.796473
0.760491 -3.055475 0.765294
0.760514 -3.074372 0.765317
0.729524 -3.093256 0.734132
0.729542 -3.112155 0.734150
0.698546 -3.131046 0.702958
0.667545 -3.149940 0.671761
0.667555 -3.168844 0.671771
0.636546 -3.187744 0.640566
0.636549 -3.206651 0.640570
0.605531 -3.225559 0.609355
0.574507 -3.244473 0.578135
0.574500 -3.263386 0.578128
0.543465 -3.282309 0.546897
0.512423 -3.301238 0.515659
0.481372 -3.320172 0.484412
0.481350 -3.339098 0.484390
0.512359 -3.358009 0.515595
0.543366 -3.376919 0.546797
0.574368 -3.395827 0.577996
-0.019554 -0.225224 -0.017586
-0.019546 -0.244235 -0.017579
0.013222 -0.263248 0.011891
0.045983 -0.282257 0.041355
0.078735 -0.301263 0.070811
0.111481 -0.320265 0.100261
0.144220 -0.339265 0.129705
0.176953 -0.358262 0.159144
0.209681 -0.377257 0.188577
0.242403 -0.396250 0.218007
0.242383 -0.415255 0.217988
0.242362 -0.434260 0.217969
0.275076 -0.453252 0.247391
0.307786 -0.472242 0.276809
0.340494 -0.491232 0.306225
0.340466 -0.510239 0.306200
0.340438 -0.529246 0.306175
0.340409 -0.548254 0.306149
0.340381 -0.567264 0.306123
0.373080 -0.586256 0.335532
0.373050 -0.605267 0.335505
0.373020 -0.624279 0.335478
0.372990 -0.643292 0.335450
0.372960 -0.662306 0.335423
0.372930 -0.681322 0.335396
0.372900 -0.700338 0.335370
0.405595 -0.719337 0.364774
0.405565 -0.738356 0.364747
0.405535 -0.757375 0.364720
0.405506 -0.776397 0.364694
0.405477 -0.795418 0.364668
0.405450 -0.814441 0.364644
0.438144 -0.833449 0.394048
0.438117 -0.852474 0.394023
0.438091 -0.871501 0.393999
0.470788 -0.890513 0.423406
0.536214 -0.909512 0.482247
0.536188 -0.928544 0.482224
0.536164 -0.947576 0.482202
0.503416 -0.966623 0.452750
0.503395 -0.985657 0.452731
0.503375 -1.004692 0.452713
0.470634 -1.023739 0.423267
0.470617 -1.042774 0.423252
0.437882 -1.061820 0.393812
0.437868 -1.080857 0.393799
0.437855 -1.099894 0.393788
0.437844 -1.118931 0.393777
0.437834 -1.137969 0.393768
0.437825 -1.157008 0.393760
0.437818 -1.176047 0.393754
0.437812 -1.195087 0.393749
0.470523 -1.214125 0.423167
0.470520 -1.233166 0.423165
0.470519 -1.252207 0.423164
0.470519 -1.271249 0.423164
0.503238 -1.290293 0.452590
0.535961 -1.309337 0.482019
0.503246 -1.328378 0.452597
0.503253 -1.347421 0.452603
0.535979 -1.366469 0.482036
0.535990 -1.385513 0.482045
0.568722 -1.404564 0.511483
0.601458 -1.423616 0.540925
0.601473 -1.442661 0.540938
0.601489 -1.461705 0.540952
0.601507 -1.480749 0.540969
0.601527 -1.499792 0.540986
0.601548 -1.518835 0.541006
0.601571 -1.537877 0.541027
0.568875 -1.556902 0.511621
0.601623 -1.575958 0.541073
0.601652 -1.594997 0.541099
0.634406 -1.614054 0.570556
0.634437 -1.633093 0.570584
0.634471 -1.652130 0.570615
0.601782 -1.671144 0.541216
0.634542 -1.690200 0.570678
0.667305 -1.709257 0.600145
0.700072 -1.728314 0.629614
0.700113 -1.747347 0.629650
0.700155 -1.766377 0.629688
0.700199 -1.785407 0.629728
0.765707 -1.804489 0.688643
0.765753 -1.823517 0.688684
0.896762 -1.842656 0.806508
0.995065 -1.861766 0.894917
1.027869 -1.880821 0.924419
1.027914 -1.899846 0.924460
1.027961 -1.918870 0.924503
1.191840 -1.938032 1.071888
1.257438 -1.957108 1.130884
1.257481 -1.976128 1.130923
1.257526 -1.995147 1.130963
1.257571 -2.014162 1.131003
1.257617 -2.033175 1.131045
1.257663 -2.052185 1.131087
1.224939 -2.071163 1.101656
1.224989 -2.090167 1.101701
1.192273 -2.109137 1.072277
1.192325 -2.128135 1.072324
1.192378 -2.147130 1.072371
1.225194 -2.166155 1.101885
1.258010 -2.185175 1.131398
1.225299 -2.204130 1.101979
1.225352 -2.223114 1.102027
1.192649 -2.242060 1.072616
1.159952 -2.261003 1.043209
1.160009 -2.279977 1.043260
1.160066 -2.298948 1.043312
1.160124 -2.317916 1.043364
1.160182 -2.336880 1.043416
1.160240 -2.355842 1.043468
1.160298 -2.374801 1.043520
1.160356 -2.393756 1.043573
1.127673 -2.412673 1.014179
1.127733 -2.431623 1.014233
1.095056 -2.450534 0.984844
1.127851 -2.469514 1.014339
1.095176 -2.488419 0.984952
1.095235 -2.507358 0.985006
1.095295 -2.526293 0.985059
1.062625 -2.545191 0.955678
1.062684 -2.564121 0.955731
1.095470 -2.583084 0.985217
1.095527 -2.602009 0.985268
1.095583 -2.620931 0.985319
1.095639 -2.639851 0.985369
1.095694 -2.658769 0.985418
1.095748 -2.677684 0.985467
1.063081 -2.696565 0.956088
1.063134 -2.715476 0.956136
1.063187 -2.734385 0.956183
1.063237 -2.753292 0.956228
1.030572 -2.772167 0.926851
1.030622 -2.791071 0.926895
1.030670 -2.809973 0.926939
0.998004 -2.828845 0.897560
0.998050 -2.847745 0.897602
0.965384 -2.866616 0.868223
0.965427 -2.885514 0.868262
0.965469 -2.904411 0.868300
0.932800 -2.923282 0.838919
0.932839 -2.942178 0.838954
0.900167 -2.961051 0.809570
0.900202 -2.979946 0.809602
0.867527 -2.998821 0.780215
0.867558 -3.017716 0.780243
0.867587 -3.036611 0.780269
0.834905 -3.055490 0.750876
0.834930 -3.074386 0.750898
0.802241 -3.093269 0.721500
0.769550 -3.112155 0.692099
0.736854 -3.131046 0.662694
0.736867 -3.149947 0.662705
0.704163 -3.168844 0.633293
0.671453 -3.187744 0.603875
0.638738 -3.206650 0.574453
0.638738 -3.225559 0.574452
0.606012 -3.244473 0.545020
0.573279 -3.263392 0.515582
0.540539 -3.282317 0.486137
0.540523 -3.301238 0.486123
0.507770 -3.320172 0.456666
0.540482 -3.339083 0.486086
0.573191 -3.357993 0.515502
0.605896 -3.376901 0.544916
0.638598 -3.395809 0.574327
0.769474 -3.414659 0.692030
1.063840 -3.452328 0.956771
1.063810 -3.471236 0.956744
1.063777 -3.490147 0.956714
-0.020301 -0.225224 -0.016718
-0.020293 -0.244235 -0.016711
0.013727 -0.263248 0.011305
0.047740 -0.282257 0.039314
0.081743 -0.301263 0.067317
0.115740 -0.320265 0.095313
0.149730 -0.339265 0.123304
0.183713 -0.358262 0.151290
0.217691 -0.377257 0.179271
0.217672 -0.396262 0.179255
0.251642 -0.415255 0.207230
0.285608 -0.434247 0.235201
0.285584 -0.453252 0.235182
0.319545 -0.472242 0.263148
0.319518 -0.491248 0.263126
0.353473 -0.510239 0.291089
0.353444 -0.529246 0.291065
0.353414 -0.548254 0.291040
0.353384 -0.567264 0.291015
0.387333 -0.586256 0.318973
0.387302 -0.605267 0.318947
0.387271 -0.624279 0.318921
0.387239 -0.643292 0.318895
0.387208 -0.662306 0.318870
0.387177 -0.681322 0.318844
0.387146 -0.700338 0.318819
0.421090 -0.719337 0.346772
0.421058 -0.738356 0.346746
0.421028 -0.757375 0.346721
0.420998 -0.776397 0.346696
0.420968 -0.795418 0.346671
0.420939 -0.814441 0.346648
0.454883 -0.833449 0.374601
0.454855 -0.852474 0.374578
0.454827 -0.871501 0.374555
0.488773 -0.890513 0.402510
0.522722 -0.909528 0.430467
0.556672 -0.928544 0.458425
0.522672 -0.947590 0.430425
0.488675 -0.966637 0.402429
0.488654 -0.985670 0.402411
0.488633 -1.004704 0.402394
0.488614 -1.023739 0.402378
0.488596 -1.042774 0.402364
0.454611 -1.061820 0.374377
0.454596 -1.080857 0.374365
0.454583 -1.099894 0.374353
0.454571 -1.118931 0.374344
0.454560 -1.137969 0.374335
0.454551 -1.157008 0.374327
0.454544 -1.176047 0.374321
0.454538 -1.195087 0.374317
0.454533 -1.214127 0.374313
0.488496 -1.233166 0.402281
0.488494 -1.252207 0.402280
0.488494 -1.271249 0.402280
0.488497 -1.290291 0.402282
0.522466 -1.309335 0.430256
0.522471 -1.328378 0.430260
0.556447 -1.347425 0.458240
0.522488 -1.366464 0.430274
0.556466 -1.385513 0.458255
0.556478 -1.404556 0.458265
0.590462 -1.423608 0.486251
0.590478 -1.442652 0.486264
0.590495 -1.461695 0.486278
0.590513 -1.480737 0.486294
0.590534 -1.499780 0.486311
0.590557 -1.518821 0.486330
0.590582 -1.537862 0.486350
0.590608 -1.556902 0.486371
0.590636 -1.575941 0.486395
0.624636 -1.594997 0.514394
0.624668 -1.614036 0.514420
0.658674 -1.633093 0.542425
0.658709 -1.652130 0.542454
0.658745 -1.671166 0.542483
0.726738 -1.690245 0.598476
0.726777 -1.709280 0.598508
0.726817 -1.728314 0.598541
0.692882 -1.747322 0.570595
0.692926 -1.766351 0.570632
0.726948 -1.785407 0.598649
0.794959 -1.804489 0.654657
0.828993 -1.823545 0.682684
0.965021 -1.842683 0.794705
1.067090 -1.861793 0.878759
1.067136 -1.880821 0.878798
1.067184 -1.899846 0.878837
1.101244 -1.918899 0.906886
1.305433 -1.938084 1.075037
1.305476 -1.957108 1.075073
1.305521 -1.976128 1.075110
1.305567 -1.995147 1.075148
1.305614 -2.014162 1.075186
1.305662 -2.033175 1.075226
1.271685 -2.052156 1.047246
1.237715 -2.071133 1.019271
1.237768 -2.090137 1.019315
1.203807 -2.109106 0.991347
1.237875 -2.128135 1.019403
1.237930 -2.147130 1.019448
1.272000 -2.166155 1.047505
1.272054 -2.185144 1.047550
1.272109 -2.204130 1.047595
1.272164 -2.223114 1.047640
1.272221 -2.242094 1.047687
1.238270 -2.261038 1.019728
1.238328 -2.280011 1.019776
1.204384 -2.298948 0.991823
1.204444 -2.317916 0.991872
1.204504 -2.336880 0.991921
1.204564 -2.355842 0.991971
1.170631 -2.374765 0.964026
1.170693 -2.393721 0.964077
1.170754 -2.412673 0.964128
1.136828 -2.431587 0.936189
1.136890 -2.450534 0.936241
1.136953 -2.469478 0.936292
1.137015 -2.488419 0.936343
1.137077 -2.507358 0.936394
1.137138 -2.526293 0.936445
1.137199 -2.545227 0.936495
1.137260 -2.564157 0.936545
1.171298 -2.583119 0.964576
1.171356 -2.602043 0.964624
1.137438 -2.620931 0.936692
1.103522 -2.639817 0.908762
1.103581 -2.658736 0.908810
1.137609 -2.677684 0.936833
1.103694 -2.696565 0.908903
1.103749 -2.715476 0.908949
1.103803 -2.734385 0.908993
1.103856 -2.753292 0.909037
1.069943 -2.772167 0.881109
1.069994 -2.791071 0.881151
1.070045 -2.809973 0.881193
1.070093 -2.828873 0.881232
1.036178 -2.847745 0.853303
1.036225 -2.866643 0.853342
1.002309 -2.885514 0.825412
1.002353 -2.904411 0.825448
0.968436 -2.923282 0.797517
0.968476 -2.942178 0.797550
0.934556 -2.961051 0.769617
0.934593 -2.979946 0.769647
0.900669 -2.998821 0.741710
0.900702 -3.017716 0.741737
0.866773 -3.036594 0.713797
0.866801 -3.055490 0.713819
0.866826 -3.074386 0.713840
0.832889 -3.093269 0.685893
0.798949 -3.112155 0.657943
0.798966 -3.131055 0.657957
0.765017 -3.149947 0.630000
0.731064 -3.168844 0.602039
0.697105 -3.187744 0.574073
0.663140 -3.206650 0.546103
0.663139 -3.225559 0.546102
0.629164 -3.244473 0.518123
0.629156 -3.263386 0.518117
0.595169 -3.282309 0.490127
0.561173 -3.301238 0.462132
0.561153 -3.320160 0.462115
0.561130 -3.339083 0.462097
0.561104 -3.358009 0.462075
0.629043 -3.376901 0.518023
0.696974 -3.395791 0.573965
0.730920 -3.414695 0.601920
1.138437 -3.452311 0.937514
1.138406 -3.471218 0.937489
1.138372 -3.490126 0.937461
-0.198121 -0.149105 -0.147231
-0.233490 -0.168108 -0.173516
-0.198062 -0.187144 -0.147188
-0.162645 -0.206176 -0.120868
-0.056482 -0.225218 -0.041974
-0.021100 -0.244235 -0.015680
0.049639 -0.263249 0.036888
0.084999 -0.282256 0.063166
0.155705 -0.301254 0.115711
0.191047 -0.320253 0.141975
0.226382 -0.339249 0.168234
0.261712 -0.358243 0.194489
0.297036 -0.377235 0.220740
0.332356 -0.396225 0.246987
0.367672 -0.415214 0.273232
0.402985 -0.434201 0.299474
0.438294 -0.453188 0.325714
0.438263 -0.472193 0.325691
0.438232 -0.491198 0.325668
0.438200 -0.510204 0.325644
0.438167 -0.529211 0.325620
0.438135 -0.548218 0.325595
0.438102 -0.567227 0.325571
0.473401 -0.586218 0.351803
0.473366 -0.605229 0.351778
0.473332 -0.624242 0.351752
0.473298 -0.643255 0.351727
0.473264 -0.662269 0.351701
0.473230 -0.681284 0.351676
0.508525 -0.700282 0.377906
0.508491 -0.719300 0.377880
0.473129 -0.738338 0.351601
0.473096 -0.757357 0.351577
0.508391 -0.776361 0.377806
0.508360 -0.795383 0.377783
0.543656 -0.814390 0.404012
0.543624 -0.833415 0.403989
0.543594 -0.852441 0.403967
0.543565 -0.871469 0.403945
0.543536 -0.890498 0.403924
0.578837 -0.909512 0.430157
0.578810 -0.928544 0.430137
0.578784 -0.947576 0.430117
0.578759 -0.966610 0.430099
0.578735 -0.985644 0.430082
0.578713 -1.004680 0.430065
0.578692 -1.023716 0.430049
0.578673 -1.042753 0.430035
0.613982 -1.061782 0.456275
0.613966 -1.080822 0.456262
0.613950 -1.099862 0.456251
0.578609 -1.118911 0.429988
0.578597 -1.137951 0.429979
0.613912 -1.156987 0.456223
0.613903 -1.176030 0.456216
0.578570 -1.195077 0.429959
0.578565 -1.214120 0.429955
0.578561 -1.233163 0.429952
0.578559 -1.252207 0.429950
0.578559 -1.271250 0.429950
0.578560 -1.290294 0.429951
0.578564 -1.309337 0.429954
0.578568 -1.328381 0.429957
0.613898 -1.347430 0.456212
0.578584 -1.366469 0.429969
0.613917 -1.385519 0.456226
0.613929 -1.404564 0.456235
0.649268 -1.423616 0.482497
0.684611 -1.442670 0.508762
0.719960 -1.461725 0.535031
0.719979 -1.480772 0.535045
0.719999 -1.499817 0.535060
0.720022 -1.518862 0.535077
0.720046 -1.537906 0.535095
0.720072 -1.556949 0.535115
0.684771 -1.575975 0.508881
0.684802 -1.595015 0.508904
0.684834 -1.614054 0.508928
0.684868 -1.633093 0.508953
0.684904 -1.652130 0.508980
0.684941 -1.671166 0.509007
0.684981 -1.690200 0.509037
