-1.724251 -3.562146 -0.447220
-1.724325 -3.587623 -0.447239
-1.724398 -3.613096 -0.447258
-1.724472 -3.638566 -0.447277
-1.724546 -3.664031 -0.447296
-1.724619 -3.689492 -0.447315
-1.724692 -3.714949 -0.447334
-1.767382 -3.740448 -0.458407
-1.767453 -3.765897 -0.458425
-1.767522 -3.791342 -0.458443
-1.767591 -3.816785 -0.458461
-1.767659 -3.842222 -0.458479
-1.767726 -3.867657 -0.458496
-1.767793 -3.893088 -0.458513
-1.767858 -3.918516 -0.458530
-1.767922 -3.943940 -0.458547
-1.767985 -3.969361 -0.458563
-1.768048 -3.994779 -0.458579
-1.768108 -4.020193 -0.458595
-1.768168 -4.045605 -0.458611
-1.768226 -4.071013 -0.458626
-1.768283 -4.096419 -0.458640
-1.768338 -4.121822 -0.458655
-1.768391 -4.147223 -0.458669
-1.768444 -4.172621 -0.458682
-1.811084 -4.198048 -0.469742
-1.811131 -4.223440 -0.469754
-1.811176 -4.248831 -0.469766
-1.811219 -4.274220 -0.469777
-1.811260 -4.299606 -0.469787
-1.811300 -4.324992 -0.469798
-1.811337 -4.350376 -0.469807
-1.811372 -4.375757 -0.469816
-1.811404 -4.401138 -0.469825
-1.811434 -4.426518 -0.469833
-1.854040 -4.451914 -0.480883
-1.854064 -4.477291 -0.480890
-1.854086 -4.502667 -0.480895
-1.854106 -4.528043 -0.480900
-1.854123 -4.553419 -0.480905
-1.854137 -4.578794 -0.480908
-1.981858 -4.604187 -0.514036
-2.024431 -4.629560 -0.525078
-2.492611 -4.654881 -0.646510
-1.981868 -4.680300 -0.514038
-2.535128 -4.705577 -0.657537
-2.620203 -4.730899 -0.679603
-2.620174 -4.756251 -0.679596
0.034147 -2.104256 -0.145887
0.044170 -2.129843 -0.188709
0.054193 -2.155433 -0.231533
0.064217 -2.181024 -0.274358
0.074241 -2.206617 -0.317186
0.074246 -2.232198 -0.317208
0.094292 -2.257809 -0.402850
0.094298 -2.283392 -0.402875
0.094304 -2.308974 -0.402902
0.094311 -2.334556 -0.402930
0.094318 -2.360136 -0.402961
0.094326 -2.385716 -0.402995
0.084314 -2.411273 -0.360222
0.074304 -2.436825 -0.317454
0.064295 -2.462373 -0.274690
0.054286 -2.487918 -0.231931
0.044279 -2.513459 -0.189174
0.044290 -2.539025 -0.189221
0.044301 -2.564592 -0.189271
0.044313 -2.590156 -0.189322
0.054343 -2.615752 -0.232175
0.054356 -2.641315 -0.232230
0.054369 -2.666876 -0.232286
0.074420 -2.692509 -0.317949
0.084453 -2.718108 -0.360814
0.084467 -2.743667 -0.360876
0.074463 -2.769185 -0.318136
0.074479 -2.794739 -0.318201
0.074495 -2.820292 -0.318268
0.084530 -2.845886 -0.361142
0.104585 -2.871525 -0.446827
0.134664 -2.897212 -0.575334
0.144703 -2.922809 -0.618224
0.174789 -2.948500 -0.746764
0.194856 -2.974145 -0.832498
0.234981 -2.999887 -1.003928
0.245028 -3.025485 -1.046852
0.255076 -3.051081 -1.089781
0.265125 -3.076675 -1.132713
0.275175 -3.102268 -1.175649
0.295258 -3.127908 -1.261451
0.295277 -3.153447 -1.261531
0.305329 -3.179032 -1.304477
0.315381 -3.204614 -1.347426
0.325435 -3.230194 -1.390377
0.335489 -3.255771 -1.433332
0.345543 -3.281343 -1.476288
0.355598 -3.306913 -1.519246
0.355617 -3.332429 -1.519326
0.365672 -3.357991 -1.562285
0.375727 -3.383549 -1.605245
0.385782 -3.409102 -1.648206
0.385801 -3.434604 -1.648284
0.385819 -3.460102 -1.648360
0.385837 -3.485595 -1.648438
0.385855 -3.511084 -1.648516
0.385873 -3.536570 -1.648593
0.385891 -3.562051 -1.648671
0.395945 -3.587576 -1.691624
0.395963 -3.613050 -1.691700
0.395981 -3.638519 -1.691776
0.395998 -3.663984 -1.691851
0.396016 -3.689446 -1.691927
0.396033 -3.714903 -1.692002
0.396051 -3.740357 -1.692076
0.396068 -3.765808 -1.692150
0.396085 -3.791254 -1.692223
0.396102 -3.816697 -1.692296
0.396119 -3.842136 -1.692368
0.396136 -3.867571 -1.692439
0.396152 -3.893003 -1.692508
0.396168 -3.918433 -1.692578
0.396184 -3.943858 -1.692646
0.396200 -3.969280 -1.692713
0.396215 -3.994699 -1.692778
0.396230 -4.020115 -1.692843
0.396245 -4.045529 -1.692905
0.396259 -4.070940 -1.692967
0.396273 -4.096347 -1.693027
0.396287 -4.121753 -1.693086
0.396300 -4.147155 -1.693142
0.396313 -4.172556 -1.693197
0.396326 -4.197954 -1.693251
0.396338 -4.223350 -1.693302
0.396349 -4.248744 -1.693352
0.396360 -4.274136 -1.693399
0.396371 -4.299527 -1.693444
0.396381 -4.324916 -1.693487
0.396391 -4.350304 -1.693528
0.396400 -4.375691 -1.693566
0.396408 -4.401076 -1.693602
0.396416 -4.426461 -1.693637
0.396423 -4.451845 -1.693668
0.396430 -4.477228 -1.693696
0.396436 -4.502611 -1.693722
0.396442 -4.527993 -1.693745
0.396446 -4.553375 -1.693765
0.396450 -4.578758 -1.693784
0.416501 -4.604156 -1.779446
0.426526 -4.629541 -1.822279
0.426528 -4.654919 -1.822286
0.426529 -4.680298 -1.822290
0.546783 -4.705632 -2.336061
0.556799 -4.730983 -2.378853
0.576832 -4.756316 -2.464441
0.027059 -2.104256 -0.147367
0.035002 -2.129843 -0.190623
0.042944 -2.155433 -0.233881
0.050888 -2.181024 -0.277140
0.058831 -2.206617 -0.320402
0.058835 -2.232198 -0.320424
0.066780 -2.257794 -0.363690
0.074725 -2.283392 -0.406960
0.082670 -2.308991 -0.450233
0.074735 -2.334556 -0.407016
0.074741 -2.360136 -0.407047
0.074747 -2.385716 -0.407081
0.066814 -2.411273 -0.363875
0.058881 -2.436825 -0.320673
0.050949 -2.462373 -0.277476
0.043018 -2.487918 -0.234282
0.035088 -2.513459 -0.191093
0.035097 -2.539025 -0.191140
0.035106 -2.564592 -0.191190
0.035115 -2.590156 -0.191242
0.035125 -2.615719 -0.191295
0.043074 -2.641315 -0.234585
0.043084 -2.666876 -0.234642
0.058973 -2.692509 -0.321173
0.066923 -2.718108 -0.364473
0.066935 -2.743667 -0.364535
0.059007 -2.769185 -0.321362
0.059020 -2.794739 -0.321428
0.051093 -2.820250 -0.278259
0.066984 -2.845886 -0.364804
0.090817 -2.871570 -0.494601
0.106712 -2.897212 -0.581168
0.114667 -2.922809 -0.624493
0.138509 -2.948500 -0.754336
0.146466 -2.974097 -0.797675
0.178261 -2.999839 -0.970830
0.186222 -3.025436 -1.014186
0.194183 -3.051032 -1.057546
0.202146 -3.076626 -1.100911
0.210109 -3.102218 -1.144279
0.218073 -3.127809 -1.187651
0.226037 -3.153396 -1.231026
0.234002 -3.178981 -1.274405
0.241968 -3.204564 -1.317786
0.249934 -3.230144 -1.361171
0.257900 -3.255721 -1.404557
0.265867 -3.281293 -1.447947
0.273835 -3.306863 -1.491338
0.281803 -3.332429 -1.534732
0.281817 -3.357942 -1.534812
0.289785 -3.383500 -1.578206
0.297753 -3.409054 -1.621601
0.297768 -3.434556 -1.621681
0.297783 -3.460052 -1.621760
0.297797 -3.485546 -1.621840
0.297812 -3.511035 -1.621920
0.297827 -3.536520 -1.622000
0.297841 -3.562002 -1.622080
0.297856 -3.587479 -1.622160
0.297871 -3.612953 -1.622240
0.297885 -3.638422 -1.622320
0.297900 -3.663889 -1.622400
0.297914 -3.689350 -1.622479
0.297929 -3.714808 -1.622558
0.297943 -3.740263 -1.622636
0.297958 -3.765714 -1.622714
0.297972 -3.791162 -1.622791
0.305935 -3.816651 -1.666160
0.305949 -3.842091 -1.666234
0.305962 -3.867527 -1.666308
0.305975 -3.892960 -1.666380
0.305989 -3.918389 -1.666452
0.306001 -3.943815 -1.666522
0.306014 -3.969238 -1.666591
0.306027 -3.994658 -1.666658
0.306039 -4.020075 -1.666725
0.306051 -4.045490 -1.666790
0.306062 -4.070901 -1.666854
0.306074 -4.096310 -1.666916
0.306085 -4.121716 -1.666976
0.306096 -4.147120 -1.667035
0.306106 -4.172522 -1.667091
0.306116 -4.197921 -1.667146
0.306126 -4.223318 -1.667200
0.306135 -4.248714 -1.667251
0.306144 -4.274107 -1.667299
0.306153 -4.299500 -1.667346
0.306161 -4.324890 -1.667391
0.306169 -4.350279 -1.667433
0.306176 -4.375668 -1.667473
0.306183 -4.401054 -1.667511
0.306189 -4.426440 -1.667545
0.306195 -4.451826 -1.667578
0.306201 -4.477211 -1.667607
0.306206 -4.502595 -1.667634
0.306210 -4.527979 -1.667659
0.306214 -4.553363 -1.667680
0.314161 -4.578758 -1.710958
0.330049 -4.604156 -1.797490
0.330051 -4.629536 -1.797500
0.330053 -4.654915 -1.797508
0.425352 -4.680279 -2.316517
0.433290 -4.705632 -2.359749
0.441227 -4.730983 -2.402974
0.330053 -4.756444 -1.797508
0.314167 -4.781840 -1.710990
0.019908 -2.104256 -0.148502
0.025752 -2.129843 -0.192091
0.031595 -2.155433 -0.235682
0.037440 -2.181024 -0.279275
0.043284 -2.206617 -0.322870
0.043287 -2.232198 -0.322893
0.043290 -2.257779 -0.322916
0.054977 -2.283392 -0.410095
0.060823 -2.308991 -0.453701
0.060827 -2.334574 -0.453729
0.054989 -2.360136 -0.410183
0.054994 -2.385716 -0.410217
0.054998 -2.411295 -0.410253
0.043320 -2.436825 -0.323143
0.037485 -2.462373 -0.279613
0.031650 -2.487918 -0.236087
0.031656 -2.513487 -0.236133
0.025822 -2.539025 -0.192612
0.025828 -2.564592 -0.192663
0.025835 -2.590156 -0.192715
0.031683 -2.615752 -0.236336
0.031691 -2.641315 -0.236392
0.031698 -2.666876 -0.236449
0.037547 -2.692473 -0.280077
0.049237 -2.718108 -0.367280
0.049246 -2.743667 -0.367343
0.043413 -2.769185 -0.323837
0.043422 -2.794739 -0.323904
0.043432 -2.820292 -0.323972
0.055124 -2.845930 -0.411187
0.060975 -2.871525 -0.454834
0.078511 -2.897212 -0.585644
0.084364 -2.922809 -0.629303
0.096061 -2.948452 -0.716555
0.101915 -2.974049 -0.760224
0.119460 -2.999742 -0.891096
0.137009 -3.025436 -1.021998
0.142866 -3.051032 -1.065692
0.148725 -3.076626 -1.109391
0.154583 -3.102218 -1.153093
0.160443 -3.127809 -1.196799
0.166302 -3.153396 -1.240508
0.172162 -3.178981 -1.284221
0.172174 -3.204513 -1.284304
0.178034 -3.230093 -1.328020
0.183895 -3.255670 -1.371738
0.189756 -3.281243 -1.415459
0.195618 -3.306812 -1.459183
0.201479 -3.332379 -1.502908
0.201491 -3.357891 -1.502991
0.207352 -3.383450 -1.546716
0.207363 -3.408955 -1.546799
0.213225 -3.434506 -1.590526
0.213236 -3.460003 -1.590607
0.213247 -3.485496 -1.590689
0.213258 -3.510985 -1.590771
0.213269 -3.536471 -1.590854
0.213280 -3.561952 -1.590935
0.213291 -3.587430 -1.591018
0.213302 -3.612903 -1.591100
0.219163 -3.638422 -1.634816
0.219174 -3.663889 -1.634897
0.219185 -3.689350 -1.634977
0.219195 -3.714808 -1.635056
0.219206 -3.740263 -1.635135
0.219216 -3.765714 -1.635213
0.219227 -3.791162 -1.635291
0.219237 -3.816605 -1.635368
0.219247 -3.842045 -1.635444
0.219257 -3.867481 -1.635520
0.219267 -3.892915 -1.635594
0.219277 -3.918345 -1.635667
0.219287 -3.943772 -1.635739
0.219296 -3.969196 -1.635810
0.219306 -3.994617 -1.635880
0.219315 -4.020034 -1.635948
0.219324 -4.045450 -1.636015
0.219333 -4.070862 -1.636081
0.219341 -4.096272 -1.636144
0.219349 -4.121679 -1.636206
0.219357 -4.147084 -1.636267
0.219365 -4.172486 -1.636325
0.219373 -4.197887 -1.636382
0.219380 -4.223286 -1.636437
0.219387 -4.248682 -1.636489
0.219394 -4.274078 -1.636539
0.219401 -4.299471 -1.636588
0.219407 -4.324863 -1.636633
0.219413 -4.350254 -1.636677
0.219418 -4.375643 -1.636718
0.219423 -4.401031 -1.636756
0.219428 -4.426419 -1.636793
0.219432 -4.451807 -1.636825
0.219436 -4.477193 -1.636856
0.219440 -4.502579 -1.636884
0.219444 -4.527965 -1.636909
0.219447 -4.553351 -1.636931
0.231137 -4.578758 -1.724138
0.236983 -4.604148 -1.767744
0.236985 -4.629529 -1.767756
0.231142 -4.654907 -1.724173
0.225299 -4.680289 -1.680588
0.312942 -4.705640 -2.334350
0.307099 -4.731010 -2.290760
0.225299 -4.756454 -1.680586
0.012711 -2.104256 -0.149290
0.016442 -2.129843 -0.193111
0.020173 -2.155433 -0.236933
0.023904 -2.181024 -0.280758
0.027635 -2.206617 -0.324585
0.027637 -2.232198 -0.324607
0.031369 -2.257794 -0.368438
0.035101 -2.283392 -0.412272
0.035103 -2.308974 -0.412299
0.038836 -2.334574 -0.456138
0.038839 -2.360156 -0.456170
0.035112 -2.385716 -0.412395
0.031385 -2.411273 -0.368624
0.027659 -2.436825 -0.324858
0.023933 -2.462373 -0.281097
0.020207 -2.487918 -0.237340
0.016482 -2.513459 -0.193587
0.016486 -2.539025 -0.193635
0.016491 -2.564592 -0.193685
0.016495 -2.590156 -0.193738
0.016500 -2.615719 -0.193792
0.016504 -2.641280 -0.193848
0.020238 -2.666876 -0.237704
0.023973 -2.692473 -0.281564
0.031436 -2.718108 -0.369230
0.031442 -2.743667 -0.369294
0.031447 -2.769225 -0.369359
0.027724 -2.794739 -0.325623
0.024000 -2.820250 -0.281891
0.024006 -2.845799 -0.281961
0.042660 -2.871570 -0.501057
0.050127 -2.897212 -0.588753
0.053864 -2.922809 -0.632644
0.061332 -2.948452 -0.720359
0.065070 -2.974049 -0.764260
0.080003 -2.999791 -0.939663
0.083743 -3.025388 -0.983582
0.087482 -3.050982 -1.027505
0.091222 -3.076576 -1.071432
0.094963 -3.102168 -1.115363
0.098703 -3.127758 -1.159298
0.102444 -3.153346 -1.203236
0.106186 -3.178931 -1.247178
0.109927 -3.204513 -1.291123
0.113669 -3.230093 -1.335070
0.117411 -3.255670 -1.379021
0.117418 -3.281191 -1.379105
0.121160 -3.306762 -1.423059
0.124902 -3.332329 -1.467013
0.124910 -3.357840 -1.467097
0.128652 -3.383399 -1.511053
0.128659 -3.408904 -1.511138
0.132402 -3.434455 -1.555094
0.132409 -3.459952 -1.555177
0.132416 -3.485445 -1.555261
0.132423 -3.510935 -1.555346
0.132430 -3.536420 -1.555429
0.132437 -3.561901 -1.555513
0.132445 -3.587379 -1.555598
0.132452 -3.612853 -1.555682
0.132459 -3.638322 -1.555766
0.132466 -3.663788 -1.555849
0.132473 -3.689251 -1.555932
0.132480 -3.714710 -1.556015
0.132487 -3.740165 -1.556097
0.132494 -3.765616 -1.556179
0.132501 -3.791065 -1.556260
0.136241 -3.816557 -1.600194
0.136248 -3.841998 -1.600272
0.136255 -3.867435 -1.600348
0.136261 -3.892869 -1.600425
0.136268 -3.918300 -1.600500
0.136274 -3.943728 -1.600574
0.136280 -3.969152 -1.600647
0.136286 -3.994574 -1.600718
0.136292 -4.019993 -1.600788
0.136298 -4.045409 -1.600856
0.136304 -4.070822 -1.600923
0.136309 -4.096233 -1.600989
0.132582 -4.121603 -1.557213
0.132587 -4.147010 -1.557275
0.132593 -4.172415 -1.557336
0.132598 -4.197818 -1.557395
0.132602 -4.223219 -1.557452
0.132607 -4.248619 -1.557507
0.132612 -4.274016 -1.557559
0.132616 -4.299412 -1.557610
0.132620 -4.324807 -1.557658
0.132624 -4.350201 -1.557702
0.132627 -4.375594 -1.557745
0.132631 -4.400985 -1.557786
0.132634 -4.426376 -1.557822
0.132637 -4.451766 -1.557858
0.132640 -4.477156 -1.557889
0.132642 -4.502546 -1.557918
0.132644 -4.527936 -1.557944
0.140109 -4.553351 -1.645621
0.147573 -4.578758 -1.733291
0.147575 -4.604140 -1.733306
0.184884 -4.629562 -2.171511
0.184884 -4.654929 -2.171511
0.196074 -4.680284 -2.302943
0.188613 -4.705659 -2.215314
0.151308 -4.731062 -1.777156
0.128906 -4.959726 -1.514040
0.132635 -4.985121 -1.557835
0.005484 -2.104256 -0.149730
0.005484 -2.129833 -0.149746
0.008703 -2.155433 -0.237631
0.010313 -2.181024 -0.281585
0.011922 -2.206617 -0.325541
0.011923 -2.232198 -0.325563
0.013533 -2.257794 -0.369523
0.013534 -2.283376 -0.369548
0.013535 -2.308957 -0.369576
0.013536 -2.334537 -0.369606
0.015146 -2.360136 -0.413575
0.013539 -2.385695 -0.369674
0.013540 -2.411273 -0.369710
0.011932 -2.436825 -0.325815
0.010325 -2.462373 -0.281925
0.008718 -2.487918 -0.238040
0.007111 -2.513459 -0.194157
0.005504 -2.538996 -0.150278
0.007114 -2.564592 -0.194256
0.007116 -2.590156 -0.194308
0.007118 -2.615719 -0.194362
0.008729 -2.641315 -0.238347
0.008731 -2.666876 -0.238404
0.011951 -2.692509 -0.326324
0.015171 -2.718146 -0.414251
0.015174 -2.743706 -0.414314
0.011958 -2.769185 -0.326515
0.010352 -2.794698 -0.282652
0.010354 -2.820250 -0.282721
0.011966 -2.845843 -0.326722
0.016795 -2.871525 -0.458596
0.020016 -2.897166 -0.546546
0.023238 -2.922809 -0.634508
0.024850 -2.948405 -0.678531
0.028072 -2.974049 -0.766511
0.032905 -2.999742 -0.898466
0.036128 -3.025388 -0.986479
0.037741 -3.050982 -1.030532
0.039355 -3.076576 -1.074588
0.040969 -3.102168 -1.118648
0.042582 -3.127758 -1.162713
0.042585 -3.153294 -1.162797
0.044199 -3.178879 -1.206865
0.045813 -3.204462 -1.250936
0.047428 -3.230042 -1.295011
0.049042 -3.255618 -1.339088
0.050656 -3.281191 -1.383168
0.052271 -3.306762 -1.427250
0.052274 -3.332276 -1.427335
0.052277 -3.357788 -1.427421
0.053891 -3.383348 -1.471504
0.053894 -3.408852 -1.471590
0.053898 -3.434352 -1.471676
0.053901 -3.459849 -1.471762
0.055515 -3.485394 -1.515844
0.055518 -3.510883 -1.515930
0.055521 -3.536368 -1.516015
0.055525 -3.561850 -1.516102
0.055528 -3.587327 -1.516187
0.055531 -3.612801 -1.516273
0.055534 -3.638271 -1.516358
0.055537 -3.663738 -1.516443
0.055540 -3.689200 -1.516528
0.055543 -3.714660 -1.516612
0.055546 -3.740115 -1.516695
0.055549 -3.765567 -1.516779
0.055552 -3.791015 -1.516861
0.055556 -3.816460 -1.516943
0.055558 -3.841902 -1.517024
0.055561 -3.867341 -1.517104
0.055564 -3.892776 -1.517183
0.055567 -3.918208 -1.517261
0.055570 -3.943637 -1.517336
0.055573 -3.969063 -1.517412
0.055575 -3.994486 -1.517486
0.055578 -4.019907 -1.517558
0.055581 -4.045325 -1.517630
0.057193 -4.070782 -1.561669
0.057196 -4.096193 -1.561735
0.057198 -4.121603 -1.561800
0.057201 -4.147010 -1.561862
0.057203 -4.172415 -1.561924
0.057205 -4.197818 -1.561983
0.057207 -4.223219 -1.562040
0.057209 -4.248619 -1.562095
0.057211 -4.274016 -1.562147
0.057213 -4.299412 -1.562198
0.057215 -4.324807 -1.562246
0.057216 -4.350201 -1.562290
0.057218 -4.375594 -1.562334
0.057219 -4.400985 -1.562374
0.057221 -4.426376 -1.562411
0.057222 -4.451766 -1.562446
0.057223 -4.477156 -1.562478
0.057224 -4.502546 -1.562507
0.057225 -4.527936 -1.562533
0.060446 -4.553351 -1.650468
0.062056 -4.578748 -1.694443
0.063666 -4.604140 -1.738411
0.062057 -4.629517 -1.694471
0.078153 -4.654930 -2.133964
0.082981 -4.680289 -2.265787
0.081371 -4.705659 -2.221840
-0.002661 -2.104256 -0.149807
-0.002661 -2.129833 -0.149823
-0.004223 -2.155433 -0.237753
-0.004223 -2.181012 -0.237772
-0.005004 -2.206604 -0.281749
-0.005786 -2.232198 -0.325730
-0.005786 -2.257779 -0.325753
-0.006567 -2.283376 -0.369738
-0.007349 -2.308974 -0.413726
-0.006568 -2.334537 -0.369796
-0.007350 -2.360136 -0.413787
-0.007350 -2.385716 -0.413821
-0.007351 -2.411295 -0.413858
-0.006571 -2.436849 -0.369939
-0.005010 -2.462373 -0.282070
-0.003450 -2.487890 -0.194211
-0.003450 -2.513459 -0.194257
-0.002671 -2.538996 -0.150355
-0.002672 -2.564560 -0.150405
-0.003453 -2.590156 -0.194408
-0.003454 -2.615719 -0.194462
-0.003455 -2.641280 -0.194519
-0.004237 -2.666876 -0.238527
-0.006580 -2.692546 -0.370445
-0.006581 -2.718108 -0.370507
-0.006582 -2.743667 -0.370571
-0.005803 -2.769185 -0.326682
-0.005023 -2.794698 -0.282797
-0.005024 -2.820250 -0.282866
-0.005026 -2.845799 -0.282937
-0.007369 -2.871481 -0.414872
-0.009713 -2.897166 -0.546826
-0.010495 -2.922762 -0.590866
-0.012058 -2.948405 -0.678879
-0.013622 -2.974049 -0.766904
-0.015185 -2.999693 -0.854943
-0.016749 -3.025338 -0.942994
-0.018314 -3.050982 -1.031060
-0.019097 -3.076576 -1.075139
-0.019098 -3.102118 -1.075222
-0.019881 -3.127707 -1.119305
-0.020664 -3.153294 -1.163393
-0.021447 -3.178879 -1.207484
-0.022231 -3.204462 -1.251577
-0.023014 -3.230042 -1.295675
-0.023015 -3.255566 -1.295761
-0.023799 -3.281139 -1.339861
-0.024582 -3.306710 -1.383962
-0.025365 -3.332276 -1.428067
-0.025367 -3.357788 -1.428153
-0.025368 -3.383296 -1.428239
-0.025370 -3.408800 -1.428326
-0.025372 -3.434300 -1.428414
-0.026155 -3.459849 -1.472517
-0.026156 -3.485342 -1.472604
-0.026158 -3.510831 -1.472691
-0.026160 -3.536316 -1.472777
-0.026161 -3.561797 -1.472864
-0.026163 -3.587275 -1.472951
-0.026164 -3.612749 -1.473038
-0.026166 -3.638219 -1.473125
-0.026167 -3.663686 -1.473211
-0.026169 -3.689149 -1.473298
-0.026170 -3.714608 -1.473383
-0.026172 -3.740064 -1.473468
-0.026173 -3.765516 -1.473552
-0.026956 -3.791015 -1.517639
-0.026958 -3.816460 -1.517721
-0.026959 -3.841902 -1.517802
-0.026961 -3.867341 -1.517881
-0.026962 -3.892776 -1.517960
-0.026963 -3.918208 -1.518039
-0.026965 -3.943637 -1.518114
-0.026966 -3.969063 -1.518190
-0.026967 -3.994486 -1.518264
-0.026969 -4.019907 -1.518336
-0.026970 -4.045325 -1.518408
-0.026971 -4.070740 -1.518476
-0.026972 -4.096153 -1.518544
-0.026974 -4.121563 -1.518610
-0.026975 -4.146972 -1.518674
-0.026976 -4.172378 -1.518736
-0.026977 -4.197783 -1.518796
-0.026978 -4.223185 -1.518854
-0.026979 -4.248586 -1.518910
-0.026980 -4.273985 -1.518963
-0.026981 -4.299382 -1.519014
-0.026982 -4.324779 -1.519063
-0.026982 -4.350174 -1.519108
-0.026983 -4.375568 -1.519152
-0.026984 -4.400961 -1.519193
-0.026985 -4.426354 -1.519230
-0.026985 -4.451746 -1.519266
-0.026986 -4.477138 -1.519298
-0.026986 -4.502530 -1.519327
-0.026987 -4.527921 -1.519354
-0.029331 -4.553351 -1.651314
-0.029331 -4.578737 -1.651334
-0.029331 -4.604123 -1.651350
-0.029332 -4.629510 -1.651363
-0.029332 -4.654897 -1.651373
-0.039485 -4.680293 -2.222985
-0.038704 -4.705663 -2.179016
-0.023861 -4.908969 -1.343392
-0.023079 -4.934414 -1.299363
-0.008992 -2.104256 -0.149560
-0.008993 -2.129833 -0.149576
-0.011633 -2.155422 -0.193478
-0.014272 -2.181012 -0.237381
-0.016912 -2.206604 -0.281286
-0.019552 -2.232198 -0.325194
-0.019553 -2.257779 -0.325217
-0.022193 -2.283376 -0.369130
-0.022195 -2.308957 -0.369157
-0.022197 -2.334537 -0.369187
-0.022199 -2.360116 -0.369220
-0.024839 -2.385716 -0.413141
-0.024842 -2.411295 -0.413177
-0.022205 -2.436849 -0.369330
-0.016931 -2.462373 -0.281606
-0.014296 -2.487918 -0.237770
-0.009022 -2.513430 -0.150059
-0.009025 -2.538996 -0.150108
-0.011666 -2.564592 -0.194036
-0.011669 -2.590156 -0.194088
-0.014311 -2.615752 -0.238021
-0.011676 -2.641280 -0.194199
-0.014317 -2.666876 -0.238134
-0.019598 -2.692509 -0.325954
-0.022240 -2.718108 -0.369898
-0.022243 -2.743667 -0.369962
-0.022247 -2.769225 -0.370027
-0.016975 -2.794698 -0.282332
-0.016979 -2.820250 -0.282400
-0.019621 -2.845843 -0.326352
-0.022264 -2.871436 -0.370307
-0.030184 -2.897120 -0.502037
-0.035467 -2.922762 -0.589894
-0.038110 -2.948357 -0.633866
-0.046033 -2.974049 -0.765643
-0.051318 -2.999693 -0.853536
-0.056603 -3.025338 -0.941443
-0.059248 -3.050933 -0.985442
-0.061894 -3.076526 -1.029446
-0.064540 -3.102118 -1.073453
-0.067186 -3.127707 -1.117464
-0.069832 -3.153294 -1.161479
-0.072479 -3.178879 -1.205498
-0.072484 -3.204409 -1.205583
-0.075131 -3.229989 -1.249605
-0.077778 -3.255566 -1.293629
-0.080425 -3.281139 -1.337656
-0.080430 -3.306657 -1.337743
-0.083077 -3.332224 -1.381772
-0.085724 -3.357788 -1.425804
-0.085730 -3.383296 -1.425890
-0.085735 -3.408800 -1.425976
-0.085740 -3.434300 -1.426064
-0.085745 -3.459796 -1.426151
-0.085751 -3.485289 -1.426239
-0.085756 -3.510778 -1.426327
-0.085761 -3.536263 -1.426415
-0.085766 -3.561744 -1.426503
-0.088413 -3.587275 -1.470528
-0.088419 -3.612749 -1.470615
-0.088424 -3.638219 -1.470702
-0.088429 -3.663686 -1.470788
-0.088434 -3.689149 -1.470874
-0.088439 -3.714608 -1.470959
-0.088444 -3.740064 -1.471044
-0.088450 -3.765516 -1.471128
-0.088454 -3.790965 -1.471212
-0.088460 -3.816411 -1.471294
-0.088464 -3.841853 -1.471376
-0.088469 -3.867292 -1.471457
-0.088474 -3.892728 -1.471537
-0.088479 -3.918161 -1.471616
-0.088483 -3.943591 -1.471693
-0.088488 -3.969018 -1.471769
-0.088493 -3.994442 -1.471845
-0.088497 -4.019864 -1.471918
-0.088501 -4.045282 -1.471989
-0.088506 -4.070699 -1.472060
-0.088510 -4.096112 -1.472128
-0.088514 -4.121524 -1.472195
-0.088518 -4.146934 -1.472259
-0.088521 -4.172341 -1.472322
-0.088525 -4.197746 -1.472383
-0.088528 -4.223150 -1.472441
-0.088532 -4.248552 -1.472497
-0.088535 -4.273953 -1.472551
-0.088538 -4.299352 -1.472603
-0.088541 -4.324750 -1.472652
-0.088544 -4.350147 -1.472698
-0.088547 -4.375543 -1.472742
-0.088549 -4.400938 -1.472783
-0.088551 -4.426332 -1.472822
-0.088553 -4.451725 -1.472857
-0.088555 -4.477119 -1.472889
-0.088557 -4.502512 -1.472919
-0.096478 -4.527950 -1.604670
-0.099120 -4.553351 -1.648598
-0.099121 -4.578737 -1.648617
-0.099122 -4.604123 -1.648633
-0.122878 -4.629557 -2.043751
-0.128156 -4.654930 -2.131546
-0.128156 -4.680298 -2.131543
-0.128156 -4.705667 -2.131539
-0.075357 -4.883583 -1.253367
-0.075355 -4.909008 -1.253335
-0.077994 -4.934414 -1.297225
-0.107028 -5.010414 -1.780136
-0.107026 -5.035825 -1.780093
-0.011451 -2.104246 -0.105245
-0.016208 -2.129833 -0.148967
-0.020966 -2.155422 -0.192690
-0.025723 -2.181012 -0.236414
-0.030481 -2.206604 -0.280140
-0.035239 -2.232198 -0.323870
-0.035241 -2.257779 -0.323893
-0.035244 -2.283359 -0.323919
-0.040003 -2.308957 -0.367654
-0.040006 -2.334537 -0.367684
-0.040009 -2.360116 -0.367716
-0.044769 -2.385716 -0.411458
-0.040017 -2.411273 -0.367787
-0.035266 -2.436825 -0.324121
-0.030515 -2.462373 -0.280459
-0.025765 -2.487918 -0.236802
-0.021015 -2.513459 -0.193147
-0.016266 -2.538996 -0.149496
-0.016271 -2.564560 -0.149547
-0.016277 -2.590123 -0.149599
-0.016283 -2.615685 -0.149653
-0.021044 -2.641280 -0.193408
-0.021050 -2.666840 -0.193465
-0.025811 -2.692436 -0.237224
-0.044838 -2.718146 -0.412096
-0.044845 -2.743706 -0.412160
-0.040097 -2.769225 -0.368520
-0.030594 -2.794698 -0.281182
-0.030601 -2.820250 -0.281250
-0.030609 -2.845799 -0.281321
-0.044882 -2.871481 -0.412503
-0.059158 -2.897166 -0.543703
-0.063922 -2.922762 -0.587492
-0.073444 -2.948405 -0.675002
-0.082967 -2.974049 -0.762525
-0.097249 -2.999742 -0.893793
-0.097258 -3.025289 -0.893874
-0.106785 -3.050933 -0.981429
-0.111553 -3.076526 -1.025254
-0.116322 -3.102118 -1.069082
-0.121091 -3.127707 -1.112914
-0.125860 -3.153294 -1.156749
-0.125870 -3.178827 -1.156834
-0.130639 -3.204409 -1.200674
-0.135410 -3.229989 -1.244516
-0.140180 -3.255566 -1.288361
-0.140190 -3.281087 -1.288448
-0.144961 -3.306657 -1.332295
-0.144970 -3.332172 -1.332382
-0.149741 -3.357736 -1.376232
-0.149751 -3.383243 -1.376319
-0.154522 -3.408800 -1.420170
-0.154531 -3.434300 -1.420257
-0.154541 -3.459796 -1.420344
-0.154550 -3.485289 -1.420431
-0.154560 -3.510778 -1.420519
-0.154569 -3.536263 -1.420606
-0.154579 -3.561744 -1.420694
-0.154588 -3.587222 -1.420782
-0.154598 -3.612696 -1.420870
-0.154607 -3.638166 -1.420957
-0.154617 -3.663633 -1.421044
-0.154626 -3.689096 -1.421131
-0.159396 -3.714608 -1.464970
-0.159405 -3.740064 -1.465054
-0.159414 -3.765516 -1.465138
-0.159423 -3.790965 -1.465221
-0.159432 -3.816411 -1.465303
-0.159441 -3.841853 -1.465385
-0.159450 -3.867292 -1.465465
-0.159459 -3.892728 -1.465545
-0.159467 -3.918161 -1.465624
-0.159476 -3.943591 -1.465700
-0.159484 -3.969018 -1.465776
-0.154733 -3.994397 -1.422110
-0.154741 -4.019819 -1.422184
-0.154749 -4.045238 -1.422256
-0.154756 -4.070656 -1.422327
-0.154764 -4.096071 -1.422395
-0.154771 -4.121484 -1.422462
-0.159537 -4.146934 -1.466264
-0.159544 -4.172341 -1.466326
-0.159550 -4.197746 -1.466388
-0.159557 -4.223150 -1.466445
-0.154804 -4.248518 -1.422767
-0.154810 -4.273921 -1.422822
-0.154816 -4.299321 -1.422873
-0.154821 -4.324720 -1.422923
-0.154826 -4.350119 -1.422969
-0.154831 -4.375516 -1.423013
-0.159594 -4.400938 -1.466786
-0.159598 -4.426332 -1.466824
-0.154844 -4.451705 -1.423128
-0.154847 -4.477100 -1.423161
-0.154850 -4.502495 -1.423191
-0.169127 -4.527936 -1.554407
-0.173888 -4.553338 -1.598158
-0.178648 -4.578737 -1.641904
-0.173892 -4.604114 -1.598193
-0.169135 -4.629496 -1.554479
-0.226222 -4.654930 -2.079149
-0.226222 -4.680299 -2.079149
-0.226222 -4.705670 -2.079146
-0.216708 -4.731050 -1.991711
-0.135817 -4.883583 -1.248263
-0.135814 -4.909008 -1.248232
-0.135810 -4.934436 -1.248197
-0.023384 -2.104256 -0.147994
-0.023386 -2.129833 -0.148010
-0.030250 -2.155422 -0.191452
-0.037114 -2.181012 -0.234896
-0.043979 -2.206604 -0.278341
-0.050844 -2.232198 -0.321789
-0.050847 -2.257779 -0.321812
-0.050851 -2.283359 -0.321838
-0.050856 -2.308939 -0.321866
-0.057722 -2.334537 -0.365322
-0.057727 -2.360116 -0.365354
-0.057733 -2.385695 -0.365389
-0.057738 -2.411273 -0.365425
-0.050883 -2.436825 -0.322039
-0.044029 -2.462373 -0.278657
-0.037175 -2.487918 -0.235280
-0.030322 -2.513459 -0.191906
-0.030329 -2.539025 -0.191954
-0.030337 -2.564592 -0.192004
-0.030345 -2.590156 -0.192056
-0.030354 -2.615719 -0.192109
-0.030363 -2.641280 -0.192166
-0.030372 -2.666840 -0.192223
-0.044102 -2.692473 -0.279120
-0.064694 -2.718146 -0.409449
-0.064704 -2.743706 -0.409512
-0.057853 -2.769225 -0.366153
-0.044142 -2.794698 -0.279376
-0.044153 -2.820250 -0.279444
-0.044164 -2.845799 -0.279514
-0.057897 -2.871436 -0.366430
-0.078493 -2.897120 -0.496781
-0.092229 -2.922762 -0.583718
-0.099104 -2.948357 -0.627229
-0.112843 -2.974001 -0.714184
-0.133449 -2.999693 -0.844600
-0.140328 -3.025289 -0.888131
-0.147206 -3.050883 -0.931667
-0.160953 -3.076526 -1.018668
-0.167833 -3.102118 -1.062214
-0.167846 -3.127656 -1.062298
-0.174727 -3.153242 -1.105849
-0.181609 -3.178827 -1.149403
-0.188491 -3.204409 -1.192961
-0.188505 -3.229936 -1.193046
-0.195388 -3.255513 -1.236607
-0.202271 -3.281087 -1.280171
-0.209154 -3.306657 -1.323736
-0.209168 -3.332172 -1.323823
-0.216052 -3.357736 -1.367391
-0.216066 -3.383243 -1.367478
-0.222950 -3.408800 -1.411047
-0.222963 -3.434300 -1.411133
-0.222977 -3.459796 -1.411220
-0.222991 -3.485289 -1.411306
-0.223004 -3.510778 -1.411393
-0.223018 -3.536263 -1.411480
-0.223032 -3.561744 -1.411568
-0.223046 -3.587222 -1.411655
-0.223060 -3.612696 -1.411742
-0.223073 -3.638166 -1.411829
-0.223087 -3.663633 -1.411915
-0.223101 -3.689096 -1.412001
-0.223114 -3.714556 -1.412087
-0.223128 -3.740012 -1.412172
-0.223141 -3.765465 -1.412257
-0.223154 -3.790914 -1.412340
-0.223167 -3.816360 -1.412423
-0.223180 -3.841803 -1.412505
-0.223193 -3.867243 -1.412586
-0.223206 -3.892680 -1.412666
-0.223218 -3.918113 -1.412745
-0.223230 -3.943544 -1.412822
-0.223242 -3.968972 -1.412899
-0.223254 -3.994397 -1.412974
-0.223266 -4.019819 -1.413048
-0.223277 -4.045238 -1.413120
-0.223288 -4.070656 -1.413190
-0.223299 -4.096071 -1.413258
-0.223310 -4.121484 -1.413324
-0.223320 -4.146894 -1.413389
-0.223330 -4.172304 -1.413452
-0.223339 -4.197711 -1.413513
-0.223349 -4.223115 -1.413571
-0.223357 -4.248518 -1.413627
-0.223366 -4.273921 -1.413682
-0.223374 -4.299321 -1.413732
-0.223382 -4.324720 -1.413782
-0.223389 -4.350119 -1.413828
-0.223396 -4.375516 -1.413872
-0.223403 -4.400913 -1.413913
-0.223409 -4.426309 -1.413951
-0.223414 -4.451705 -1.413986
-0.223419 -4.477100 -1.414019
-0.230289 -4.502512 -1.457498
-0.250888 -4.527950 -1.587869
-0.250892 -4.553338 -1.587891
-0.250895 -4.578726 -1.587910
-0.244033 -4.604105 -1.544480
-0.312675 -4.629554 -1.978916
-0.333265 -4.654930 -2.109229
-0.326402 -4.680299 -2.065793
-0.319538 -4.705673 -2.022356
-0.312675 -4.731050 -1.978917
-0.195962 -4.883583 -1.240244
-0.189090 -4.909029 -1.196746
-0.189084 -4.934459 -1.196710
-0.021555 -2.104246 -0.103649
-0.030509 -2.129833 -0.146707
-0.039464 -2.155422 -0.189767
-0.048419 -2.181012 -0.232828
-0.057374 -2.206604 -0.275891
-0.057379 -2.232184 -0.275913
-0.066335 -2.257779 -0.318980
-0.066340 -2.283359 -0.319006
-0.075298 -2.308957 -0.362077
-0.075304 -2.334537 -0.362107
-0.075310 -2.360116 -0.362139
-0.075317 -2.385695 -0.362173
-0.075325 -2.411273 -0.362209
-0.057431 -2.436800 -0.276164
-0.048489 -2.462347 -0.233167
-0.039548 -2.487890 -0.190173
-0.030608 -2.513430 -0.147181
-0.021668 -2.538966 -0.104193
-0.021678 -2.564529 -0.104242
-0.021689 -2.590091 -0.104294
-0.030650 -2.615685 -0.147383
-0.030661 -2.641246 -0.147438
-0.039623 -2.666840 -0.190531
-0.066485 -2.692509 -0.319703
-0.075449 -2.718108 -0.362804
-0.075462 -2.743667 -0.362866
-0.075475 -2.769225 -0.362930
-0.066538 -2.794739 -0.319956
-0.057602 -2.820250 -0.276984
-0.057616 -2.845799 -0.277054
-0.066581 -2.871392 -0.320164
-0.084498 -2.897029 -0.406320
-0.102417 -2.922669 -0.492483
-0.120337 -2.948310 -0.578657
-0.138260 -2.973952 -0.664841
-0.174097 -2.999693 -0.837166
-0.183070 -3.025289 -0.880315
-0.201002 -3.050933 -0.966543
-0.201019 -3.076475 -0.966624
-0.209995 -3.102067 -1.009784
-0.218971 -3.127656 -1.052948
-0.227948 -3.153242 -1.096116
-0.227966 -3.178774 -1.096200
-0.236944 -3.204357 -1.139372
-0.245922 -3.229936 -1.182546
-0.254901 -3.255513 -1.225724
-0.263881 -3.281087 -1.268904
-0.263899 -3.306604 -1.268990
-0.272879 -3.332172 -1.312172
-0.272897 -3.357683 -1.312258
-0.281878 -3.383243 -1.355443
-0.281896 -3.408747 -1.355528
-0.281914 -3.434247 -1.355615
-0.281932 -3.459743 -1.355702
-0.281950 -3.485235 -1.355790
-0.281968 -3.510724 -1.355877
-0.281986 -3.536209 -1.355965
-0.282004 -3.561690 -1.356051
-0.282023 -3.587168 -1.356139
-0.282041 -3.612642 -1.356226
-0.282059 -3.638113 -1.356313
-0.291038 -3.663633 -1.399489
-0.291055 -3.689096 -1.399574
-0.291073 -3.714556 -1.399659
-0.291091 -3.740012 -1.399744
-0.291108 -3.765465 -1.399827
-0.291125 -3.790914 -1.399910
-0.291142 -3.816360 -1.399992
-0.282200 -3.841753 -1.356992
-0.291176 -3.867243 -1.400154
-0.291192 -3.892680 -1.400233
-0.291209 -3.918113 -1.400312
-0.291225 -3.943544 -1.400388
-0.291240 -3.968972 -1.400464
-0.291256 -3.994397 -1.400539
-0.291271 -4.019819 -1.400611
-0.291286 -4.045238 -1.400683
-0.291300 -4.070656 -1.400752
-0.291314 -4.096071 -1.400820
-0.291328 -4.121484 -1.400886
-0.291341 -4.146894 -1.400950
-0.291354 -4.172304 -1.401013
-0.291367 -4.197711 -1.401073
-0.291379 -4.223115 -1.401130
-0.291390 -4.248518 -1.401186
-0.291402 -4.273921 -1.401240
-0.291412 -4.299321 -1.401290
-0.291422 -4.324720 -1.401339
-0.291432 -4.350119 -1.401385
-0.291441 -4.375516 -1.401428
-0.291449 -4.400913 -1.401469
-0.291457 -4.426309 -1.401507
-0.291465 -4.451705 -1.401542
-0.291471 -4.477100 -1.401574
-0.309390 -4.502530 -1.487737
-0.327307 -4.527950 -1.573894
-0.327311 -4.553338 -1.573916
-0.327315 -4.578726 -1.573935
-0.318363 -4.604105 -1.530887
-0.309410 -4.629489 -1.487835
-0.416868 -4.654929 -2.004558
-0.416868 -4.680300 -2.004559
-0.407914 -4.705675 -1.961504
-0.398960 -4.731053 -1.918447
-0.246697 -4.858176 -1.186273
-0.246691 -4.883601 -1.186245
-0.246685 -4.909029 -1.186214
-0.255638 -4.934436 -1.229264
-0.291465 -4.959771 -1.401544
-0.327285 -4.985097 -1.573788
-0.146665 -2.078678 -0.030563
-0.146679 -2.104256 -0.030566
-0.189734 -2.129843 -0.039538
-0.232790 -2.155433 -0.048511
-0.275848 -2.181024 -0.057484
-0.318908 -2.206617 -0.066457
-0.361971 -2.232212 -0.075431
-0.405036 -2.257809 -0.084405
-0.448106 -2.283407 -0.093381
-0.448133 -2.308991 -0.093386
-0.405118 -2.334556 -0.084422
-0.405149 -2.360136 -0.084429
-0.405182 -2.385716 -0.084436
-0.362178 -2.411273 -0.075474
-0.319177 -2.436825 -0.066513
-0.233147 -2.462347 -0.048585
-0.190156 -2.487890 -0.039627
-0.147169 -2.513430 -0.030668
-0.104184 -2.538966 -0.021711
-0.104234 -2.564529 -0.021721
-0.104285 -2.590091 -0.021732
-0.147371 -2.615685 -0.030710
-0.147425 -2.641246 -0.030722
-0.276581 -2.666912 -0.057637
-0.319675 -2.692509 -0.066617
-0.276701 -2.718032 -0.057661
-0.276763 -2.743589 -0.057675
-0.233793 -2.769104 -0.048720
-0.276893 -2.794698 -0.057702
-0.319996 -2.820292 -0.066684
-0.449181 -2.845973 -0.093605
-0.492294 -2.871570 -0.102589
-0.621505 -2.897257 -0.129515
-0.707685 -2.922902 -0.147474
-0.793877 -2.948547 -0.165436
-0.966225 -2.974288 -0.201351
-1.009378 -2.999887 -0.210344
-1.052535 -3.025485 -0.219337
-1.138783 -3.051130 -0.237310
-1.181951 -3.076725 -0.246306
-1.225123 -3.102317 -0.255303
-1.268299 -3.127908 -0.264300
-1.311478 -3.153496 -0.273298
-1.354660 -3.179082 -0.282297
-1.397845 -3.204664 -0.291296
-1.441032 -3.230244 -0.300296
-1.484223 -3.255820 -0.309296
-1.570531 -3.281441 -0.327282
-1.570608 -3.306962 -0.327298
-1.613803 -3.332526 -0.336300
-1.613881 -3.358039 -0.336316
-1.657077 -3.383596 -0.345317
-1.657153 -3.409102 -0.345333
-1.700349 -3.434651 -0.354335
-1.700424 -3.460149 -0.354351
-1.700501 -3.485643 -0.354366
-1.700577 -3.511132 -0.354382
-1.700654 -3.536618 -0.354398
-1.700730 -3.562099 -0.354414
-1.700807 -3.587576 -0.354430
-1.700883 -3.613050 -0.354446
-1.700960 -3.638519 -0.354462
-1.701035 -3.663984 -0.354478
-1.701112 -3.689446 -0.354494
-1.701187 -3.714903 -0.354509
-1.701261 -3.740357 -0.354525
-1.701336 -3.765808 -0.354540
-1.701409 -3.791254 -0.354556
-1.744577 -3.816741 -0.363552
-1.744648 -3.842180 -0.363566
-1.744718 -3.867615 -0.363581
-1.744787 -3.893046 -0.363595
-1.744855 -3.918474 -0.363609
-1.744921 -3.943899 -0.363623
-1.744987 -3.969321 -0.363637
-1.745051 -3.994739 -0.363650
-1.745115 -4.020154 -0.363663
-1.745177 -4.045567 -0.363676
-1.745237 -4.070977 -0.363689
-1.745296 -4.096384 -0.363701
-1.745353 -4.121788 -0.363713
-1.745409 -4.147190 -0.363725
-1.745463 -4.172589 -0.363736
-1.745515 -4.197986 -0.363747
-1.745565 -4.223381 -0.363757
-1.745614 -4.248774 -0.363768
-1.788730 -4.274193 -0.372753
-1.788773 -4.299581 -0.372761
-1.788813 -4.324967 -0.372770
-1.788853 -4.350352 -0.372778
-1.788889 -4.375736 -0.372786
-1.788923 -4.401118 -0.372793
-1.788955 -4.426500 -0.372799
-1.788985 -4.451880 -0.372806
-1.789011 -4.477261 -0.372811
-1.832095 -4.502654 -0.381789
-1.832115 -4.528031 -0.381794
-1.832134 -4.553409 -0.381797
-1.961315 -4.578809 -0.408717
-2.434872 -4.604187 -0.507402
-2.391818 -4.629549 -0.498430
-2.434851 -4.654899 -0.507397
-2.477877 -4.680246 -0.516364
-2.477860 -4.705602 -0.516360
-2.477840 -4.730959 -0.516356
-2.563885 -4.756286 -0.534287
-0.026537 -2.104246 -0.102486
-0.037561 -2.129833 -0.145062
-0.048585 -2.155422 -0.187639
-0.059610 -2.181012 -0.230217
-0.070636 -2.206604 -0.272797
-0.081662 -2.232198 -0.315380
-0.081668 -2.257779 -0.315403
-0.081674 -2.283359 -0.315428
-0.092702 -2.308957 -0.358017
-0.092709 -2.334537 -0.358046
-0.092717 -2.360116 -0.358078
-0.103747 -2.385716 -0.400673
-0.092735 -2.411273 -0.358147
-0.070706 -2.436800 -0.273067
-0.070716 -2.462373 -0.273108
-0.059708 -2.487918 -0.230594
-0.048701 -2.513459 -0.188084
-0.037695 -2.538996 -0.145578
-0.037707 -2.564560 -0.145627
-0.037720 -2.590123 -0.145677
-0.048752 -2.615719 -0.188283
-0.048767 -2.641280 -0.188338
-0.059800 -2.666876 -0.230948
-0.092872 -2.692546 -0.358675
-0.103907 -2.718146 -0.401294
-0.092904 -2.743667 -0.358797
-0.081901 -2.769185 -0.316303
-0.070898 -2.794698 -0.273812
-0.070916 -2.820250 -0.273878
-0.070933 -2.845799 -0.273947
-0.104010 -2.871481 -0.401691
-0.126070 -2.897120 -0.486887
-0.137110 -2.922715 -0.529525
-0.159174 -2.948357 -0.614737
-0.192266 -2.974049 -0.742537
-0.214337 -2.999693 -0.827778
-0.225385 -3.025289 -0.870443
-0.236433 -3.050883 -0.913111
-0.247482 -3.076475 -0.955784
-0.258532 -3.102067 -0.998460
-0.269583 -3.127656 -1.041141
-0.280636 -3.153242 -1.083824
-0.280657 -3.178774 -1.083907
-0.291710 -3.204357 -1.126594
-0.302764 -3.229936 -1.169285
-0.313819 -3.255513 -1.211978
-0.313841 -3.281034 -1.212063
-0.324896 -3.306604 -1.254759
-0.335952 -3.332172 -1.297457
-0.347008 -3.357736 -1.340157
-0.347030 -3.383243 -1.340242
-0.347052 -3.408747 -1.340327
-0.347074 -3.434247 -1.340413
-0.347096 -3.459743 -1.340499
-0.347119 -3.485235 -1.340586
-0.347141 -3.510724 -1.340672
-0.347164 -3.536209 -1.340759
-0.347186 -3.561690 -1.340845
-0.347208 -3.587168 -1.340931
-0.347231 -3.612642 -1.341017
-0.347253 -3.638113 -1.341104
-0.347275 -3.663580 -1.341190
-0.347297 -3.689044 -1.341274
-0.358351 -3.714556 -1.383963
-0.358372 -3.740012 -1.384047
-0.358394 -3.765465 -1.384130
-0.358415 -3.790914 -1.384211
-0.358436 -3.816360 -1.384293
-0.347427 -3.841753 -1.341774
-0.347448 -3.867193 -1.341855
-0.347468 -3.892631 -1.341934
-0.347488 -3.918065 -1.342012
-0.347508 -3.943496 -1.342089
-0.347528 -3.968925 -1.342165
-0.347547 -3.994351 -1.342239
-0.347566 -4.019774 -1.342312
-0.347584 -4.045195 -1.342383
-0.347602 -4.070613 -1.342452
-0.347620 -4.096030 -1.342520
-0.347637 -4.121443 -1.342586
-0.358681 -4.146894 -1.385239
-0.358697 -4.172304 -1.385301
-0.358713 -4.197711 -1.385361
-0.358727 -4.223115 -1.385418
-0.358742 -4.248518 -1.385473
-0.358755 -4.273921 -1.385526
-0.358768 -4.299321 -1.385576
-0.358781 -4.324720 -1.385624
-0.358792 -4.350119 -1.385669
-0.358804 -4.375516 -1.385712
-0.358814 -4.400913 -1.385753
-0.358824 -4.426309 -1.385790
-0.358833 -4.451705 -1.385825
-0.347814 -4.477081 -1.343272
-0.380901 -4.502530 -1.471053
-0.391934 -4.527936 -1.513662
-0.402965 -4.553338 -1.556266
-0.391945 -4.578715 -1.513704
-0.391949 -4.604105 -1.513719
-0.491174 -4.629550 -1.896930
-0.513221 -4.654929 -1.982079
-0.513222 -4.680300 -1.982080
-0.491176 -4.705676 -1.896937
-0.480152 -4.731056 -1.854362
-0.292694 -4.832767 -1.130393
-0.292687 -4.858192 -1.130369
-0.292680 -4.883619 -1.130340
-0.292671 -4.909050 -1.130307
-0.314725 -4.934436 -1.215479
-0.044520 -2.104256 -0.143063
-0.044525 -2.129833 -0.143078
-0.057594 -2.155422 -0.185073
-0.070663 -2.181012 -0.227069
-0.083732 -2.206604 -0.269066
-0.096802 -2.232198 -0.311067
-0.096809 -2.257779 -0.311089
-0.096817 -2.283359 -0.311114
-0.096826 -2.308939 -0.311141
-0.109898 -2.334537 -0.353149
-0.122972 -2.360136 -0.395160
-0.122982 -2.385716 -0.395193
-0.109929 -2.411273 -0.353248
-0.096877 -2.436825 -0.311308
-0.083827 -2.462373 -0.269372
-0.070778 -2.487918 -0.227441
-0.057730 -2.513459 -0.185512
-0.044683 -2.538996 -0.143587
-0.044698 -2.564560 -0.143635
-0.044714 -2.590123 -0.143685
-0.057791 -2.615719 -0.185708
-0.044747 -2.641246 -0.143791
-0.057825 -2.666840 -0.185818
-0.110091 -2.692546 -0.353770
-0.110110 -2.718108 -0.353829
-0.110129 -2.743667 -0.353890
-0.110148 -2.769225 -0.353952
-0.097105 -2.794739 -0.312041
-0.071002 -2.820208 -0.228159
-0.071023 -2.845757 -0.228226
-0.084106 -2.871347 -0.270269
-0.123317 -2.897029 -0.396268
-0.162532 -2.922715 -0.522283
-0.201753 -2.948405 -0.648319
-0.240983 -2.974097 -0.774380
-0.254077 -2.999693 -0.816457
-0.267172 -3.025289 -0.858538
-0.280269 -3.050883 -0.900623
-0.306441 -3.076526 -0.984725
-0.319541 -3.102118 -1.026820
-0.319566 -3.127656 -1.026901
-0.332667 -3.153242 -1.069001
-0.332693 -3.178774 -1.069083
-0.345795 -3.204357 -1.111187
-0.358899 -3.229936 -1.153293
-0.372003 -3.255513 -1.195403
-0.372029 -3.281034 -1.195486
-0.385134 -3.306604 -1.237598
-0.385160 -3.332118 -1.237683
-0.398266 -3.357683 -1.279797
-0.398292 -3.383189 -1.279881
-0.411398 -3.408747 -1.321996
-0.411425 -3.434247 -1.322081
-0.411451 -3.459743 -1.322165
-0.411477 -3.485235 -1.322251
-0.411504 -3.510724 -1.322336
-0.411530 -3.536209 -1.322422
-0.411557 -3.561690 -1.322506
-0.411584 -3.587168 -1.322592
-0.411610 -3.612642 -1.322677
-0.411636 -3.638113 -1.322762
-0.411663 -3.663580 -1.322847
-0.411689 -3.689044 -1.322931
-0.411715 -3.714503 -1.323015
-0.411741 -3.739960 -1.323098
-0.411767 -3.765413 -1.323180
-0.411792 -3.790863 -1.323262
-0.424893 -3.816360 -1.365360
-0.424917 -3.841803 -1.365440
-0.411867 -3.867193 -1.323503
-0.411891 -3.892631 -1.323581
-0.411915 -3.918065 -1.323658
-0.411939 -3.943496 -1.323734
-0.411962 -3.968925 -1.323809
-0.411985 -3.994351 -1.323882
-0.425081 -4.019819 -1.365964
-0.425102 -4.045238 -1.366034
-0.412050 -4.070613 -1.324092
-0.412071 -4.096030 -1.324159
-0.412091 -4.121443 -1.324224
-0.412111 -4.146855 -1.324287
-0.425202 -4.172304 -1.366355
-0.425221 -4.197711 -1.366414
-0.412166 -4.223080 -1.324465
-0.412183 -4.248485 -1.324519
-0.412200 -4.273888 -1.324572
-0.412215 -4.299290 -1.324622
-0.412230 -4.324691 -1.324670
-0.412244 -4.350091 -1.324715
-0.412257 -4.375490 -1.324757
-0.412270 -4.400889 -1.324797
-0.425352 -4.426309 -1.366837
-0.425363 -4.451705 -1.366871
-0.425373 -4.477100 -1.366903
-0.451523 -4.502530 -1.450934
-0.464601 -4.527936 -1.492960
-0.477678 -4.553338 -1.534981
-0.477684 -4.578726 -1.535000
-0.464619 -4.604105 -1.493017
-0.569173 -4.629546 -1.828994
-0.608376 -4.654929 -1.954971
-0.595310 -4.680301 -1.912983
-0.582243 -4.705676 -1.870993
-0.569175 -4.731056 -1.829001
-0.556107 -4.756440 -1.787007
-0.360037 -4.832753 -1.156951
-0.346954 -4.858192 -1.114909
-0.346945 -4.883619 -1.114881
-0.373088 -4.909008 -1.198889
-0.386153 -4.934414 -1.240872
-0.399216 -4.959818 -1.282851
-0.037204 -2.104246 -0.099114
-0.052659 -2.129833 -0.140289
-0.068115 -2.155422 -0.181464
-0.083571 -2.181012 -0.222642
-0.099028 -2.206604 -0.263820
-0.114486 -2.232198 -0.305002
-0.114495 -2.257779 -0.305024
-0.114504 -2.283359 -0.305049
-0.129964 -2.308957 -0.346235
-0.129975 -2.334537 -0.346264
-0.129986 -2.360116 -0.346294
-0.145449 -2.385716 -0.387488
-0.130011 -2.411273 -0.346361
-0.114575 -2.436825 -0.305238
-0.099141 -2.462373 -0.264120
-0.068261 -2.487890 -0.181852
-0.052829 -2.513430 -0.140742
-0.052846 -2.538996 -0.140787
-0.052864 -2.564560 -0.140834
-0.068330 -2.590156 -0.182037
-0.068349 -2.615719 -0.182087
-0.068369 -2.641280 -0.182141
-0.068389 -2.666840 -0.182195
-0.130203 -2.692546 -0.346872
-0.130225 -2.718108 -0.346930
-0.130247 -2.743667 -0.346990
-0.114821 -2.769185 -0.305894
-0.099397 -2.794698 -0.264801
-0.083973 -2.820208 -0.223710
-0.083997 -2.845757 -0.223777
-0.099471 -2.871347 -0.264999
-0.145844 -2.897029 -0.388542
-0.192223 -2.922715 -0.512100
-0.238610 -2.948405 -0.635679
-0.285006 -2.974097 -0.759282
-0.315952 -2.999742 -0.841723
-0.315980 -3.025289 -0.841799
-0.331469 -3.050883 -0.883063
-0.346960 -3.076475 -0.924332
-0.362452 -3.102067 -0.965604
-0.377945 -3.127656 -1.006880
-0.393440 -3.153242 -1.048158
-0.393470 -3.178774 -1.048239
-0.408966 -3.204357 -1.089521
-0.424463 -3.229936 -1.130807
-0.439961 -3.255513 -1.172096
-0.439992 -3.281034 -1.172178
-0.455491 -3.306604 -1.213469
-0.470991 -3.332172 -1.254761
-0.471022 -3.357683 -1.254844
-0.471053 -3.383189 -1.254927
-0.486553 -3.408747 -1.296221
-0.486584 -3.434247 -1.296304
-0.486615 -3.459743 -1.296387
-0.486647 -3.485235 -1.296471
-0.486678 -3.510724 -1.296554
-0.486710 -3.536209 -1.296638
-0.486741 -3.561690 -1.296721
-0.486772 -3.587168 -1.296805
-0.486804 -3.612642 -1.296888
-0.486835 -3.638113 -1.296972
-0.486866 -3.663580 -1.297055
-0.486897 -3.689044 -1.297137
-0.486928 -3.714503 -1.297220
-0.502424 -3.740012 -1.338502
-0.502454 -3.765465 -1.338582
-0.502483 -3.790914 -1.338661
-0.502513 -3.816360 -1.338740
-0.502542 -3.841803 -1.338817
-0.502571 -3.867243 -1.338894
-0.502599 -3.892680 -1.338970
-0.518091 -3.918161 -1.380241
-0.518118 -3.943591 -1.380313
-0.502682 -3.968972 -1.339191
-0.502709 -3.994397 -1.339262
-0.502735 -4.019819 -1.339332
-0.518222 -4.045282 -1.380591
-0.502786 -4.070656 -1.339466
-0.502810 -4.096071 -1.339531
-0.487373 -4.121443 -1.298405
-0.487396 -4.146855 -1.298467
-0.487419 -4.172266 -1.298527
-0.487441 -4.197673 -1.298585
-0.487462 -4.223080 -1.298641
-0.487482 -4.248485 -1.298695
-0.487501 -4.273888 -1.298746
-0.487520 -4.299290 -1.298796
-0.487537 -4.324691 -1.298842
-0.487554 -4.350091 -1.298887
-0.487569 -4.375490 -1.298928
-0.503043 -4.400913 -1.340152
-0.503057 -4.426309 -1.340188
-0.518528 -4.451725 -1.381405
-0.518539 -4.477119 -1.381435
-0.549466 -4.502546 -1.463827
-0.564933 -4.527950 -1.505033
-0.580399 -4.553351 -1.546233
-0.564948 -4.578726 -1.505072
-0.673148 -4.604170 -1.793325
-0.688606 -4.629550 -1.834507
-0.719516 -4.654929 -1.916854
-0.704063 -4.680301 -1.875685
-0.688608 -4.705676 -1.834514
-0.657699 -4.731058 -1.752169
-0.657698 -4.756440 -1.752165
-0.441280 -4.807322 -1.175608
-0.410345 -4.832767 -1.093195
-0.410336 -4.858192 -1.093171
-0.410325 -4.883619 -1.093143
-0.425779 -4.909029 -1.134314
-0.441232 -4.934436 -1.175481
-0.058119 -2.104256 -0.138099
-0.058125 -2.129833 -0.138113
-0.075186 -2.155422 -0.178650
-0.092247 -2.181012 -0.219189
-0.109308 -2.206604 -0.259730
-0.109317 -2.232184 -0.259751
-0.126380 -2.257779 -0.300294
-0.126390 -2.283359 -0.300319
-0.126401 -2.308939 -0.300345
-0.143467 -2.334537 -0.340895
-0.143479 -2.360116 -0.340925
-0.160547 -2.385716 -0.381480
-0.143507 -2.411273 -0.340991
-0.126469 -2.436825 -0.300506
-0.109432 -2.462373 -0.260025
-0.092398 -2.487918 -0.219548
-0.075364 -2.513459 -0.179075
-0.058332 -2.538996 -0.138604
-0.058352 -2.564560 -0.138651
-0.058372 -2.590123 -0.138699
-0.058393 -2.615685 -0.138750
-0.075466 -2.641280 -0.179317
-0.075488 -2.666840 -0.179370
-0.126666 -2.692509 -0.300975
-0.160796 -2.718146 -0.382071
-0.143768 -2.743667 -0.341610
-0.126740 -2.769185 -0.301151
-0.109714 -2.794698 -0.260695
-0.109741 -2.820250 -0.260759
-0.109769 -2.845799 -0.260824
-0.126849 -2.871392 -0.301409
-0.178038 -2.897075 -0.423040
-0.212177 -2.922715 -0.504160
-0.246321 -2.948357 -0.585290
-0.314591 -2.974097 -0.747509
-0.331685 -2.999693 -0.788126
-0.348781 -3.025289 -0.828747
-0.365878 -3.050883 -0.869371
-0.382976 -3.076475 -0.910000
-0.400076 -3.102067 -0.950632
-0.417178 -3.127656 -0.991268
-0.417211 -3.153191 -0.991346
-0.434314 -3.178774 -1.031986
-0.451419 -3.204357 -1.072628
-0.468525 -3.229936 -1.113274
-0.485632 -3.255513 -1.153922
-0.485666 -3.281034 -1.154003
-0.502774 -3.306604 -1.194653
-0.519882 -3.332172 -1.235306
-0.519917 -3.357683 -1.235387
-0.537026 -3.383243 -1.276042
-0.554136 -3.408800 -1.316697
-0.571247 -3.434352 -1.357355
-0.571280 -3.459849 -1.357434
-0.554238 -3.485289 -1.316940
-0.554272 -3.510778 -1.317021
-0.571382 -3.536316 -1.357675
-0.571415 -3.561797 -1.357755
-0.571449 -3.587275 -1.357835
-0.571483 -3.612749 -1.357915
-0.571517 -3.638219 -1.357995
-0.554477 -3.663633 -1.317508
-0.554511 -3.689096 -1.317588
-0.554545 -3.714556 -1.317668
-0.554578 -3.740012 -1.317748
-0.554611 -3.765465 -1.317827
-0.554644 -3.790914 -1.317904
-0.554677 -3.816360 -1.317982
-0.554709 -3.841803 -1.318058
-0.554741 -3.867243 -1.318134
