-0.074655 -1.316959 1.646373
-0.076654 -1.331504 1.690450
-0.076657 -1.346021 1.690523
-0.078656 -1.360563 1.734602
-0.078659 -1.375077 1.734678
-0.080658 -1.389615 1.778759
-0.080661 -1.404125 1.778834
-0.082660 -1.418659 1.822917
-0.082664 -1.433165 1.822992
-0.082667 -1.447668 1.823069
-0.084666 -1.462196 1.867151
-0.084670 -1.476696 1.867226
-0.084673 -1.491193 1.867303
-0.084677 -1.505687 1.867380
-0.084680 -1.520180 1.867457
-0.084684 -1.534670 1.867535
-0.084687 -1.549158 1.867612
-0.084691 -1.563643 1.867690
-0.084694 -1.578126 1.867768
-0.084698 -1.592607 1.867847
-0.084701 -1.607086 1.867924
-0.084705 -1.621562 1.868003
-0.084708 -1.636036 1.868081
-0.084712 -1.650508 1.868158
-0.084715 -1.664978 1.868235
-0.084719 -1.679445 1.868312
-0.084722 -1.693910 1.868388
-0.084726 -1.708374 1.868464
-0.084729 -1.722834 1.868539
-0.084732 -1.737293 1.868614
-0.084736 -1.751750 1.868687
-0.084739 -1.766205 1.868761
-0.084742 -1.780658 1.868832
-0.084746 -1.795109 1.868903
-0.084749 -1.809558 1.868973
-0.084752 -1.824006 1.869041
-0.084755 -1.838451 1.869109
-0.084758 -1.852895 1.869174
-0.084761 -1.867337 1.869240
-0.084764 -1.881778 1.869303
-0.084767 -1.896217 1.869365
-0.084769 -1.910655 1.869425
-0.084772 -1.925091 1.869482
-0.084774 -1.939525 1.869539
-0.084777 -1.953959 1.869594
-0.086772 -1.968409 1.913598
-0.086774 -1.982840 1.913647
-0.086777 -1.997269 1.913695
-0.086779 -2.011698 1.913740
-0.086781 -2.026126 1.913783
-0.086782 -2.040553 1.913823
-0.086784 -2.054979 1.913863
-0.086786 -2.069404 1.913898
-0.086787 -2.083829 1.913932
-0.086789 -2.098254 1.913963
-0.086790 -2.112678 1.913991
-0.086791 -2.127102 1.914017
-0.086792 -2.141526 1.914040
-0.086793 -2.155949 1.914060
-0.086794 -2.170373 1.914078
-0.086795 -2.184797 1.914092
-0.086795 -2.199220 1.914103
-0.086796 -2.213645 1.914112
-0.086796 -2.228070 1.914118
-0.086796 -2.242495 1.914119
-0.086796 -2.256921 1.914119
-0.086796 -2.271347 1.914114
-0.086795 -2.285774 1.914107
-0.088787 -2.300198 1.958028
-0.088786 -2.314626 1.958014
-0.088785 -2.329056 1.957996
-0.088785 -2.343486 1.957975
-0.088784 -2.357918 1.957950
-0.088782 -2.372351 1.957922
-0.088781 -2.386786 1.957890
-0.088779 -2.401222 1.957855
-0.088777 -2.415660 1.957816
-0.088775 -2.430100 1.957774
-0.088773 -2.444541 1.957728
-0.090763 -2.458967 2.001609
-0.092753 -2.473393 2.045484
0.001428 -0.313589 0.370591
0.001428 -0.328116 0.370566
0.001597 -0.342636 0.414541
0.001597 -0.357164 0.414514
0.001597 -0.371694 0.414489
0.001767 -0.386215 0.458458
0.001936 -0.400736 0.502427
0.001936 -0.415267 0.502400
0.001936 -0.429799 0.502373
0.002105 -0.444323 0.546340
0.002105 -0.458857 0.546314
0.002275 -0.473382 0.590279
0.002275 -0.487917 0.590255
0.002275 -0.502453 0.590232
0.002274 -0.516989 0.590211
0.002274 -0.531525 0.590190
0.002444 -0.546056 0.634158
0.002444 -0.560594 0.634140
0.002444 -0.575133 0.634123
0.002274 -0.589676 0.590124
0.002274 -0.604215 0.590112
0.002105 -0.618757 0.546121
0.002105 -0.633296 0.546114
0.001935 -0.647837 0.502131
0.001935 -0.662375 0.502127
0.001766 -0.676914 0.458152
0.001766 -0.691453 0.458154
0.001766 -0.705991 0.458157
0.001766 -0.720529 0.458162
0.001766 -0.735068 0.458169
0.001766 -0.749606 0.458179
0.001596 -0.764140 0.414223
0.001766 -0.778683 0.458203
0.001766 -0.793221 0.458218
0.001935 -0.807765 0.502203
0.001935 -0.822304 0.502222
0.001935 -0.836843 0.502243
0.001936 -0.851381 0.502267
0.001766 -0.865909 0.458328
0.001936 -0.880456 0.502320
0.001936 -0.894993 0.502350
0.001767 -0.909518 0.458419
0.001936 -0.924066 0.502418
0.001936 -0.938601 0.502454
0.001936 -0.953136 0.502493
0.002106 -0.967685 0.546498
0.002614 -0.982265 0.678446
0.002954 -0.996832 0.766440
0.003293 -1.011401 0.854448
0.003462 -1.025956 0.898481
0.003632 -1.040511 0.942520
0.003802 -1.055066 0.986563
0.003972 -1.069622 1.030612
0.004480 -1.084216 1.162678
0.004820 -1.098793 1.250761
0.004820 -1.113331 1.250818
0.004990 -1.127888 1.294896
0.004990 -1.142425 1.294957
0.005160 -1.156981 1.339042
0.005330 -1.171538 1.383131
0.005330 -1.186071 1.383196
0.005500 -1.200627 1.427291
0.005670 -1.215181 1.471392
0.005670 -1.229711 1.471460
0.005840 -1.244263 1.515566
0.006010 -1.258815 1.559676
0.006011 -1.273341 1.559747
0.006181 -1.287890 1.603861
0.006181 -1.302413 1.603934
0.006351 -1.316959 1.648052
0.006351 -1.331478 1.648126
0.006521 -1.346021 1.692247
0.006522 -1.360537 1.692323
0.006522 -1.375051 1.692399
0.006692 -1.389589 1.736523
0.006692 -1.404099 1.736600
0.006692 -1.418606 1.736678
0.006863 -1.433138 1.780802
0.006863 -1.447642 1.780880
0.006863 -1.462143 1.780958
0.006863 -1.476642 1.781038
0.006864 -1.491139 1.781117
0.006864 -1.505633 1.781198
0.007034 -1.520153 1.825319
0.007034 -1.534643 1.825397
0.007035 -1.549131 1.825477
0.007035 -1.563616 1.825557
0.007035 -1.578099 1.825637
0.007036 -1.592580 1.825717
0.007036 -1.607059 1.825797
0.007036 -1.621535 1.825877
0.007037 -1.636009 1.825956
0.007037 -1.650481 1.826035
0.007037 -1.664951 1.826114
0.007037 -1.679418 1.826193
0.007038 -1.693884 1.826271
0.007038 -1.708347 1.826348
0.007038 -1.722808 1.826425
0.007039 -1.737267 1.826501
0.007039 -1.751725 1.826577
0.007039 -1.766180 1.826651
0.007039 -1.780633 1.826725
0.007040 -1.795084 1.826797
0.007040 -1.809534 1.826869
0.007040 -1.823982 1.826939
0.007041 -1.838428 1.827008
0.007041 -1.852872 1.827075
0.007041 -1.867315 1.827142
0.007041 -1.881756 1.827206
0.007042 -1.896195 1.827269
0.007042 -1.910634 1.827330
0.007042 -1.925071 1.827390
0.007212 -1.939525 1.871446
0.007212 -1.953959 1.871501
0.007212 -1.968392 1.871553
0.007212 -1.982823 1.871605
0.007213 -1.997253 1.871653
0.007213 -2.011683 1.871700
0.007213 -2.026111 1.871743
0.007213 -2.040539 1.871786
0.007213 -2.054966 1.871825
0.007213 -2.069392 1.871862
0.007214 -2.083818 1.871897
0.007214 -2.098243 1.871929
0.007214 -2.112668 1.871958
0.007214 -2.127093 1.871984
0.007214 -2.141518 1.872009
0.007214 -2.155942 1.872030
0.007214 -2.170367 1.872048
0.007214 -2.184792 1.872063
0.007214 -2.199217 1.872075
0.007214 -2.213642 1.872084
0.007214 -2.228068 1.872090
0.007214 -2.242494 1.872093
0.007214 -2.256921 1.872092
0.007214 -2.271349 1.872088
0.007214 -2.285777 1.872080
0.007214 -2.300207 1.872070
0.007214 -2.314637 1.872056
0.007214 -2.329069 1.872038
0.007214 -2.343502 1.872017
0.007214 -2.357936 1.871992
0.007214 -2.372371 1.871964
0.007214 -2.386809 1.871932
0.007214 -2.401248 1.871897
0.007383 -2.415674 1.915836
0.007383 -2.430115 1.915793
0.007383 -2.444558 1.915747
0.007721 -2.458967 2.003651
0.007891 -2.473393 2.047571
-0.280232 -0.284543 -0.167812
-0.317967 -0.299062 -0.190409
-0.355698 -0.313580 -0.213003
-0.355675 -0.328107 -0.212989
-0.393401 -0.342626 -0.235581
-0.393377 -0.357155 -0.235567
-0.431100 -0.371675 -0.258156
-0.468823 -0.386195 -0.280746
-0.468798 -0.400726 -0.280731
-0.468773 -0.415258 -0.280716
-0.506494 -0.429781 -0.303304
-0.506470 -0.444314 -0.303290
-0.506447 -0.458848 -0.303276
-0.468684 -0.473391 -0.280663
-0.468665 -0.487925 -0.280651
-0.506384 -0.502453 -0.303239
-0.468628 -0.516996 -0.280629
-0.506349 -0.531525 -0.303218
-0.506333 -0.546063 -0.303208
-0.506317 -0.560600 -0.303199
-0.506304 -0.575138 -0.303191
-0.468558 -0.589681 -0.280587
-0.468549 -0.604219 -0.280582
-0.430809 -0.618760 -0.257982
-0.393075 -0.633300 -0.235386
-0.355344 -0.647839 -0.212791
-0.355343 -0.662377 -0.212790
-0.355343 -0.676914 -0.212790
-0.317621 -0.691450 -0.190202
-0.317625 -0.705988 -0.190204
-0.317631 -0.720524 -0.190207
-0.355360 -0.735065 -0.212801
-0.355368 -0.749603 -0.212806
-0.355379 -0.764140 -0.212812
-0.355391 -0.778678 -0.212819
-0.430846 -0.793227 -0.258004
-0.468583 -0.807772 -0.280602
-0.468599 -0.822311 -0.280612
-0.506341 -0.836858 -0.303213
-0.468636 -0.851389 -0.280634
-0.468658 -0.865928 -0.280647
-0.468682 -0.880466 -0.280662
-0.468708 -0.895004 -0.280677
-0.506456 -0.909552 -0.303282
-0.506485 -0.924090 -0.303299
-0.506516 -0.938627 -0.303318
-0.544272 -0.953177 -0.325927
-0.657488 -0.967756 -0.393724
-0.732990 -0.982324 -0.438938
-0.770765 -0.996878 -0.461558
-0.884035 -1.011464 -0.529388
-0.997337 -1.026053 -0.597237
-1.035138 -1.040612 -0.619873
-1.072945 -1.055171 -0.642513
-1.110756 -1.069730 -0.665156
-1.148573 -1.084290 -0.687801
-1.186394 -1.098849 -0.710450
-1.224219 -1.113409 -0.733101
-1.224267 -1.127949 -0.733130
-1.262099 -1.142507 -0.755784
-1.299935 -1.157065 -0.778442
-1.337774 -1.171623 -0.801101
-1.375618 -1.186180 -0.823763
-1.375672 -1.200716 -0.823795
-1.413520 -1.215271 -0.846460
-1.451372 -1.229825 -0.869127
-1.489227 -1.244379 -0.891796
-1.489283 -1.258909 -0.891829
-1.527142 -1.273459 -0.914500
-1.565003 -1.288009 -0.937173
-1.602867 -1.302557 -0.959847
-1.602924 -1.317080 -0.959881
-1.640790 -1.331625 -0.982557
-1.640848 -1.346144 -0.982591
-1.678715 -1.360685 -1.005267
-1.716584 -1.375224 -1.027944
-1.716641 -1.389738 -1.027978
-1.716698 -1.404249 -1.028013
-1.754567 -1.418781 -1.050690
-1.754624 -1.433289 -1.050724
-1.792492 -1.447816 -1.073400
-1.792549 -1.462319 -1.073434
-1.792607 -1.476819 -1.073469
-1.792664 -1.491317 -1.073503
-1.830528 -1.505836 -1.096177
-1.830584 -1.520329 -1.096211
-1.830641 -1.534819 -1.096245
-1.830698 -1.549307 -1.096279
-1.830755 -1.563793 -1.096313
-1.830812 -1.578277 -1.096348
-1.868666 -1.592780 -1.119016
-1.868721 -1.607258 -1.119049
-1.868776 -1.621734 -1.119082
-1.868831 -1.636208 -1.119115
-1.868886 -1.650679 -1.119148
-1.868940 -1.665148 -1.119180
-1.868994 -1.679614 -1.119213
-1.869048 -1.694078 -1.119245
-1.869101 -1.708540 -1.119277
-1.869154 -1.723000 -1.119308
-1.869206 -1.737457 -1.119339
-1.869258 -1.751911 -1.119370
-1.869308 -1.766365 -1.119401
-1.869359 -1.780815 -1.119431
-1.869408 -1.795264 -1.119460
-1.869457 -1.809710 -1.119489
-1.869504 -1.824155 -1.119518
-1.869551 -1.838597 -1.119546
-1.869597 -1.853038 -1.119573
-1.869641 -1.867477 -1.119600
-1.869685 -1.881914 -1.119626
-1.869728 -1.896350 -1.119652
-1.869768 -1.910784 -1.119676
-1.869808 -1.925216 -1.119700
-1.869847 -1.939646 -1.119723
-1.869884 -1.954076 -1.119745
-1.869919 -1.968504 -1.119766
-1.869954 -1.982931 -1.119787
-1.869986 -1.997356 -1.119807
-1.870017 -2.011781 -1.119825
-1.870047 -2.026204 -1.119843
-1.870074 -2.040626 -1.119859
-1.870100 -2.055048 -1.119874
-1.870124 -2.069469 -1.119889
-1.870146 -2.083889 -1.119902
-1.870166 -2.098308 -1.119914
-1.870184 -2.112727 -1.119925
-1.870200 -2.127146 -1.119935
-1.870214 -2.141564 -1.119943
-1.870226 -2.155982 -1.119950
-1.870236 -2.170400 -1.119956
-1.870243 -2.184818 -1.119960
-1.870248 -2.199236 -1.119963
-1.870251 -2.213655 -1.119965
-1.870252 -2.228073 -1.119966
-1.832523 -2.242493 -1.097372
-1.870246 -2.256912 -1.119962
-1.870238 -2.271332 -1.119958
-1.870229 -2.285753 -1.119952
-1.870218 -2.300174 -1.119945
-1.870203 -2.314597 -1.119936
-1.870186 -2.329021 -1.119926
-1.870166 -2.343445 -1.119914
-1.832422 -2.357881 -1.097312
-1.870118 -2.372299 -1.119886
-1.907810 -2.386716 -1.142457
-1.832339 -2.401171 -1.097262
-1.832305 -2.415604 -1.097242
-1.794547 -2.430054 -1.074631
-1.794507 -2.444492 -1.074607
-1.907628 -2.458880 -1.142347
-1.945300 -2.473300 -1.164907
0.019640 -0.313589 0.370073
0.019639 -0.328116 0.370048
0.021969 -0.342636 0.413961
0.021968 -0.357164 0.413935
0.021967 -0.371694 0.413909
0.024297 -0.386215 0.457817
0.026627 -0.400736 0.501724
0.026626 -0.415267 0.501697
0.028956 -0.429790 0.545602
0.028954 -0.444323 0.545576
0.028953 -0.458857 0.545550
0.031283 -0.473382 0.589454
0.033613 -0.487909 0.633359
0.033612 -0.502445 0.633335
0.033611 -0.516981 0.633312
0.033610 -0.531519 0.633291
0.033608 -0.546056 0.633271
0.033607 -0.560594 0.633253
0.033607 -0.575133 0.633237
0.033606 -0.589672 0.633222
0.031274 -0.604215 0.589287
0.028943 -0.618757 0.545358
0.028942 -0.633296 0.545350
0.026611 -0.647837 0.501429
0.026611 -0.662375 0.501425
0.024281 -0.676914 0.457512
0.024281 -0.691453 0.457513
0.024281 -0.705991 0.457517
0.024281 -0.720529 0.457521
0.021951 -0.735065 0.413622
0.021952 -0.749603 0.413631
0.021953 -0.764140 0.413644
0.021953 -0.778678 0.413657
0.024284 -0.793221 0.457578
0.026615 -0.807765 0.501501
0.026616 -0.822304 0.501520
0.026617 -0.836843 0.501541
0.028949 -0.851389 0.545470
0.028950 -0.865928 0.545496
0.028952 -0.880466 0.545523
0.026623 -0.894993 0.501648
0.024295 -0.909518 0.457778
0.024297 -0.924053 0.457813
0.024299 -0.938588 0.457850
0.026631 -0.953136 0.501791
0.028963 -0.967685 0.545735
0.031295 -0.982235 0.589682
0.035958 -0.996801 0.677542
0.040621 -1.011369 0.765415
0.042955 -1.025922 0.809380
0.045288 -1.040476 0.853351
0.049953 -1.055048 0.941253
0.052288 -1.069603 0.985237
0.056954 -1.084178 1.073164
0.061621 -1.098754 1.161108
0.063957 -1.113311 1.205116
0.066293 -1.127868 1.249128
0.068629 -1.142425 1.293146
0.068632 -1.156960 1.293208
0.070969 -1.171516 1.337233
0.073305 -1.186071 1.381262
0.073309 -1.200604 1.381328
0.075646 -1.215158 1.425364
0.077983 -1.229711 1.469403
0.077987 -1.244239 1.469473
0.080324 -1.258790 1.513518
0.082662 -1.273341 1.557567
0.082666 -1.287865 1.557639
0.085004 -1.302413 1.601692
0.085008 -1.316933 1.601766
0.087346 -1.331478 1.645822
0.087350 -1.345996 1.645898
0.089688 -1.360537 1.689957
0.089692 -1.375051 1.690033
0.089696 -1.389562 1.690111
0.089700 -1.404072 1.690189
0.092039 -1.418606 1.734250
0.092043 -1.433112 1.734328
0.092047 -1.447615 1.734408
0.092051 -1.462116 1.734487
0.092055 -1.476614 1.734568
0.092060 -1.491111 1.734649
0.092064 -1.505605 1.734731
0.092069 -1.520097 1.734813
0.092073 -1.534587 1.734895
0.092077 -1.549075 1.734978
0.092082 -1.563560 1.735060
0.092086 -1.578043 1.735144
0.092090 -1.592524 1.735226
0.094428 -1.607031 1.779275
0.094433 -1.621507 1.779356
0.094437 -1.635982 1.779437
0.094441 -1.650454 1.779519
0.094445 -1.664923 1.779598
0.094450 -1.679391 1.779679
0.094454 -1.693857 1.779758
0.094458 -1.708320 1.779837
0.094462 -1.722782 1.779916
0.094466 -1.737241 1.779993
0.094470 -1.751699 1.780070
0.094474 -1.766154 1.780146
0.094478 -1.780608 1.780220
0.094482 -1.795059 1.780295
0.094486 -1.809510 1.780367
0.094490 -1.823958 1.780439
0.094494 -1.838404 1.780509
0.094497 -1.852849 1.780578
0.094501 -1.867292 1.780645
0.094504 -1.881734 1.780711
0.094508 -1.896174 1.780775
0.094511 -1.910613 1.780838
0.094514 -1.925050 1.780899
0.094517 -1.939486 1.780957
0.094521 -1.953921 1.781015
0.094523 -1.968355 1.781070
0.094526 -1.982788 1.781122
0.094529 -1.997220 1.781173
0.094532 -2.011651 1.781222
0.096865 -2.026096 1.825197
0.096868 -2.040524 1.825240
0.096870 -2.054952 1.825281
0.096872 -2.069380 1.825319
0.096874 -2.083806 1.825354
0.096875 -2.098233 1.825387
0.096877 -2.112659 1.825417
0.096878 -2.127084 1.825444
0.096880 -2.141510 1.825469
0.096881 -2.155936 1.825491
0.096882 -2.170361 1.825509
0.096883 -2.184787 1.825525
0.096883 -2.199213 1.825538
0.096884 -2.213639 1.825547
0.096884 -2.228067 1.825553
0.096884 -2.242494 1.825556
0.096884 -2.256922 1.825556
0.096884 -2.271351 1.825552
0.096884 -2.285780 1.825545
0.096883 -2.300211 1.825534
0.096882 -2.314642 1.825520
0.096882 -2.329076 1.825503
0.099211 -2.343502 1.869400
0.099210 -2.357936 1.869375
0.099208 -2.372371 1.869347
0.099207 -2.386809 1.869315
0.099205 -2.401248 1.869280
0.099203 -2.415688 1.869240
0.099201 -2.430130 1.869198
0.103859 -2.444541 1.956985
0.106187 -2.458967 2.000850
0.106185 -2.473412 2.000797
0.033316 -0.313597 0.324885
0.037802 -0.328116 0.368635
0.042288 -0.342636 0.412381
0.042285 -0.357164 0.412355
0.042283 -0.371694 0.412330
0.046768 -0.386215 0.456070
0.051254 -0.400736 0.499809
0.051251 -0.415267 0.499782
0.055736 -0.429790 0.543520
0.055733 -0.444323 0.543493
0.060218 -0.458848 0.587230
0.060216 -0.473382 0.587204
0.060213 -0.487917 0.587180
0.064698 -0.502445 0.630917
0.064696 -0.516981 0.630895
0.064694 -0.531519 0.630874
0.064692 -0.546056 0.630854
0.064690 -0.560594 0.630836
0.064688 -0.575133 0.630820
0.064687 -0.589672 0.630805
0.064685 -0.604211 0.630791
0.055711 -0.618757 0.543276
0.051224 -0.633299 0.499520
0.051223 -0.647837 0.499515
0.046737 -0.662376 0.455766
0.046737 -0.676914 0.455766
0.046737 -0.691453 0.455767
0.042252 -0.705989 0.412029
0.046738 -0.720529 0.455775
0.042253 -0.735065 0.412043
0.046740 -0.749606 0.455792
0.046741 -0.764145 0.455802
0.046742 -0.778683 0.455816
0.046744 -0.793221 0.455831
0.051231 -0.807765 0.499586
0.051233 -0.822304 0.499605
0.055720 -0.836850 0.543365
0.051237 -0.851381 0.499650
0.051240 -0.865918 0.499676
0.051243 -0.880456 0.499703
0.046761 -0.894982 0.455999
0.051249 -0.909529 0.499766
0.046768 -0.924053 0.456066
0.051256 -0.938601 0.499837
0.051260 -0.953136 0.499876
0.055749 -0.967685 0.543652
0.064724 -0.982250 0.631170
0.073700 -0.996817 0.718700
0.078191 -1.011369 0.762494
0.082682 -1.025922 0.806291
0.087174 -1.040476 0.850094
0.096154 -1.055048 0.937661
0.105135 -1.069622 1.025243
0.118607 -1.084216 1.156621
0.118613 -1.098754 1.156676
0.123108 -1.113311 1.200516
0.127604 -1.127868 1.244360
0.132101 -1.142425 1.288211
0.132108 -1.156960 1.288272
0.136605 -1.171516 1.332129
0.136611 -1.186049 1.332193
0.141109 -1.200604 1.376056
0.145608 -1.215158 1.419923
0.145615 -1.229687 1.419992
0.150114 -1.244239 1.463864
0.150121 -1.258766 1.463935
0.154621 -1.273316 1.507812
0.159120 -1.287865 1.551694
0.159128 -1.302387 1.551767
0.163628 -1.316933 1.595653
0.163636 -1.331452 1.595727
0.163644 -1.345969 1.595803
0.168144 -1.360511 1.639692
0.172645 -1.375051 1.683583
0.172653 -1.389562 1.683660
0.172661 -1.404072 1.683738
0.172669 -1.418579 1.683817
0.172677 -1.433084 1.683896
0.172685 -1.447587 1.683976
0.172694 -1.462088 1.684057
0.172702 -1.476586 1.684139
0.172711 -1.491083 1.684221
0.172719 -1.505577 1.684304
0.172728 -1.520068 1.684387
0.172736 -1.534558 1.684471
0.172745 -1.549046 1.684554
0.172753 -1.563531 1.684638
0.172762 -1.578014 1.684722
0.172771 -1.592495 1.684806
0.172779 -1.606974 1.684890
0.177279 -1.621479 1.728768
0.177287 -1.635953 1.728850
0.177296 -1.650426 1.728932
0.177304 -1.664896 1.729014
0.177312 -1.679363 1.729095
0.177320 -1.693829 1.729176
0.177329 -1.708293 1.729256
0.177337 -1.722754 1.729335
0.177345 -1.737214 1.729414
0.177353 -1.751672 1.729492
0.177361 -1.766128 1.729568
0.177369 -1.780582 1.729645
0.177376 -1.795034 1.729720
0.177384 -1.809484 1.729794
0.177391 -1.823933 1.729866
0.177399 -1.838380 1.729937
0.177406 -1.852825 1.730007
0.177413 -1.867269 1.730075
0.177420 -1.881711 1.730143
0.177426 -1.896152 1.730208
0.177433 -1.910591 1.730271
0.181927 -1.925050 1.774101
0.181933 -1.939486 1.774159
0.181939 -1.953921 1.774217
0.181945 -1.968355 1.774272
0.181950 -1.982788 1.774324
0.181956 -1.997220 1.774375
0.181960 -2.011651 1.774423
0.181965 -2.026081 1.774469
0.181970 -2.040510 1.774513
0.181974 -2.054939 1.774554
0.181978 -2.069367 1.774593
0.181982 -2.083794 1.774629
0.181985 -2.098222 1.774662
0.181988 -2.112649 1.774693
0.181991 -2.127075 1.774721
0.181993 -2.141502 1.774745
0.181996 -2.155929 1.774768
0.181998 -2.170355 1.774787
0.181999 -2.184782 1.774803
0.182001 -2.199209 1.774816
0.182002 -2.213637 1.774825
0.186489 -2.228067 1.818585
0.186489 -2.242494 1.818588
0.186489 -2.256922 1.818588
0.186489 -2.271351 1.818584
0.186488 -2.285780 1.818577
0.186487 -2.300211 1.818567
0.186486 -2.314642 1.818552
0.186484 -2.329076 1.818535
0.186482 -2.343510 1.818514
0.186479 -2.357945 1.818489
0.186476 -2.372382 1.818461
0.186473 -2.386820 1.818429
0.186469 -2.401260 1.818393
0.186465 -2.415702 1.818354
0.190948 -2.430130 1.862063
0.199916 -2.444541 1.949516
0.204397 -2.458967 1.993213
0.204391 -2.473412 1.993160
0.055878 -0.313589 0.366357
0.055874 -0.328116 0.366332
0.055870 -0.342644 0.366307
0.062501 -0.357164 0.409778
0.069131 -0.371684 0.453247
0.075760 -0.386205 0.496713
0.075756 -0.400736 0.496686
0.075752 -0.415267 0.496660
0.082381 -0.429790 0.540123
0.082377 -0.444323 0.540097
0.082373 -0.458857 0.540072
0.089003 -0.473382 0.583535
0.088999 -0.487917 0.583511
0.088996 -0.502453 0.583489
0.088992 -0.516989 0.583467
0.088989 -0.531525 0.583447
0.095619 -0.546056 0.626912
0.095616 -0.560594 0.626894
0.095613 -0.575133 0.626878
0.088979 -0.589676 0.583382
0.088977 -0.604215 0.583370
0.088976 -0.618754 0.583359
0.082343 -0.633296 0.539874
0.082342 -0.647835 0.539867
0.075711 -0.662375 0.496390
0.069080 -0.676914 0.452918
0.069081 -0.691453 0.452919
0.069081 -0.705991 0.452923
0.062452 -0.720527 0.409461
0.062453 -0.735065 0.409469
0.069084 -0.749606 0.452944
0.069086 -0.764145 0.452954
0.069088 -0.778683 0.452968
0.069090 -0.793221 0.452983
0.075722 -0.807765 0.496465
0.075725 -0.822304 0.496484
0.082358 -0.836850 0.539970
0.075732 -0.851381 0.496528
0.075736 -0.865918 0.496553
0.075740 -0.880456 0.496581
0.069116 -0.894982 0.453150
0.069121 -0.909518 0.453182
0.069126 -0.924053 0.453216
0.075760 -0.938601 0.496713
0.075766 -0.953136 0.496752
0.082401 -0.967685 0.540255
0.095667 -0.982250 0.627226
0.102303 -0.996801 0.670739
0.115571 -1.011369 0.757729
0.122210 -1.025922 0.801253
0.128849 -1.040476 0.844782
0.135489 -1.055030 0.888316
0.148763 -1.069603 0.975344
0.162039 -1.084178 1.062388
0.175318 -1.098754 1.149449
0.181962 -1.113311 1.193015
0.181971 -1.127847 1.193073
0.188617 -1.142404 1.236645
0.195264 -1.156960 1.280223
0.195273 -1.171494 1.280286
0.201921 -1.186049 1.323869
0.201931 -1.200580 1.323936
0.208579 -1.215134 1.367525
0.215228 -1.229687 1.411119
0.215239 -1.244215 1.411189
0.221889 -1.258766 1.454788
0.221900 -1.273291 1.454859
0.228550 -1.287839 1.498464
0.228562 -1.302361 1.498538
0.235213 -1.316908 1.542145
0.235225 -1.331426 1.542221
0.241876 -1.345969 1.585832
0.241888 -1.360484 1.585909
0.248540 -1.375024 1.629524
0.248552 -1.389535 1.629601
0.248564 -1.404044 1.629679
0.248576 -1.418551 1.629759
0.255228 -1.433084 1.673374
0.255241 -1.447587 1.673454
0.255253 -1.462088 1.673535
0.255265 -1.476586 1.673616
0.255278 -1.491083 1.673697
0.255290 -1.505577 1.673780
0.255303 -1.520068 1.673862
0.255315 -1.534558 1.673945
0.255328 -1.549046 1.674028
0.255341 -1.563531 1.674112
0.255354 -1.578014 1.674195
0.255366 -1.592495 1.674278
0.255379 -1.606974 1.674362
0.255392 -1.621450 1.674445
0.255404 -1.635925 1.674529
0.255417 -1.650397 1.674611
0.255430 -1.664867 1.674694
0.255442 -1.679335 1.674776
0.255455 -1.693801 1.674857
0.255467 -1.708265 1.674939
0.255479 -1.722727 1.675019
0.255491 -1.737187 1.675098
0.255503 -1.751645 1.675177
0.255515 -1.766101 1.675255
0.255527 -1.780556 1.675332
0.255539 -1.795008 1.675408
0.255550 -1.809459 1.675482
0.262196 -1.823933 1.719057
0.262207 -1.838380 1.719128
0.262217 -1.852825 1.719197
0.262228 -1.867269 1.719265
0.262238 -1.881711 1.719332
0.262248 -1.896152 1.719397
0.262257 -1.910591 1.719460
0.262267 -1.925029 1.719521
0.262276 -1.939466 1.719580
0.262285 -1.953902 1.719638
0.262293 -1.968336 1.719694
0.262301 -1.982770 1.719747
0.262309 -1.997202 1.719798
0.262316 -2.011634 1.719847
0.262324 -2.026065 1.719894
0.262330 -2.040495 1.719937
0.262337 -2.054925 1.719979
0.262343 -2.069354 1.720019
0.262348 -2.083782 1.720055
0.262353 -2.098210 1.720089
0.262358 -2.112638 1.720120
0.262362 -2.127066 1.720148
0.262366 -2.141494 1.720174
0.262370 -2.155921 1.720196
0.262373 -2.170349 1.720215
0.262375 -2.184777 1.720232
0.262377 -2.199205 1.720245
0.262379 -2.213634 1.720255
0.269012 -2.228065 1.763742
0.269012 -2.242494 1.763746
0.269012 -2.256923 1.763745
0.269011 -2.271353 1.763741
0.269010 -2.285784 1.763735
0.269009 -2.300215 1.763725
0.269007 -2.314648 1.763710
0.269004 -2.329082 1.763692
0.269001 -2.343518 1.763672
0.268997 -2.357955 1.763646
0.268993 -2.372392 1.763619
0.268988 -2.386832 1.763586
0.268982 -2.401273 1.763550
0.268976 -2.415717 1.763511
0.288864 -2.430115 1.893905
0.295488 -2.444541 1.937335
0.302112 -2.458967 1.980758
0.302104 -2.473412 1.980706
0.073816 -0.313589 0.363168
0.073811 -0.328116 0.363143
0.073806 -0.342644 0.363119
0.082565 -0.357164 0.406211
0.091323 -0.371684 0.449302
0.091318 -0.386215 0.449275
0.100076 -0.400736 0.492363
0.100070 -0.415267 0.492336
0.100065 -0.429799 0.492310
0.108822 -0.444323 0.535396
0.108817 -0.458857 0.535371
0.108813 -0.473391 0.535347
0.117570 -0.487917 0.578432
0.117565 -0.502453 0.578409
0.117561 -0.516989 0.578388
0.117557 -0.531525 0.578369
0.108792 -0.546069 0.535246
0.117550 -0.560600 0.578333
0.117547 -0.575138 0.578318
0.117544 -0.589676 0.578304
0.117541 -0.604215 0.578292
0.108779 -0.618757 0.535182
0.108777 -0.633296 0.535175
0.100017 -0.647837 0.492073
0.091257 -0.662376 0.448976
0.091257 -0.676914 0.448975
0.082499 -0.691452 0.405887
0.082500 -0.705989 0.405890
0.082501 -0.720527 0.405896
0.082502 -0.735065 0.405904
0.082504 -0.749603 0.405914
0.082507 -0.764140 0.405926
0.082510 -0.778678 0.405939
0.091270 -0.793221 0.449040
0.100031 -0.807765 0.492143
0.108793 -0.822311 0.535249
0.117555 -0.836858 0.578359
0.108801 -0.851389 0.535292
0.100049 -0.865918 0.492231
0.100054 -0.880456 0.492258
0.091304 -0.894982 0.449205
0.091310 -0.909518 0.449237
0.091317 -0.924053 0.449271
0.100081 -0.938601 0.492390
0.108846 -0.953150 0.535511
0.126369 -0.967714 0.621725
0.126378 -0.982250 0.621766
0.135145 -0.996801 0.664900
0.152672 -1.011369 0.751133
0.161442 -1.025922 0.794278
0.170212 -1.040476 0.837429
0.178984 -1.055030 0.880584
0.187756 -1.069585 0.923743
0.205293 -1.084159 1.010022
0.231599 -1.098754 1.139443
0.231610 -1.113291 1.139500
0.240388 -1.127847 1.182688
0.249168 -1.142404 1.225880
0.249180 -1.156938 1.225942
0.257961 -1.171494 1.269141
0.257974 -1.186026 1.269206
0.266756 -1.200580 1.312412
0.275538 -1.215134 1.355621
0.275552 -1.229663 1.355689
0.284336 -1.244215 1.398905
0.284350 -1.258741 1.398975
0.293135 -1.273291 1.442195
0.293150 -1.287814 1.442268
0.301935 -1.302361 1.485493
0.310722 -1.316908 1.528722
0.310737 -1.331426 1.528797
0.319524 -1.345969 1.572028
0.319540 -1.360484 1.572104
0.319555 -1.374997 1.572181
0.328343 -1.389535 1.615415
0.328359 -1.404044 1.615493
0.328375 -1.418551 1.615573
0.328391 -1.433056 1.615652
0.328407 -1.447559 1.615733
0.337195 -1.462088 1.658967
0.337211 -1.476586 1.659048
0.337228 -1.491083 1.659128
0.337245 -1.505577 1.659210
0.337261 -1.520068 1.659292
0.337278 -1.534558 1.659374
0.337295 -1.549046 1.659456
0.337311 -1.563531 1.659539
0.337328 -1.578014 1.659621
0.337345 -1.592495 1.659704
0.337362 -1.606974 1.659788
0.337379 -1.621450 1.659870
0.337395 -1.635925 1.659953
0.337412 -1.650397 1.660034
0.337429 -1.664867 1.660116
0.337445 -1.679335 1.660198
0.337461 -1.693801 1.660278
0.337478 -1.708265 1.660359
0.337494 -1.722727 1.660439
0.337510 -1.737187 1.660517
0.337526 -1.751645 1.660595
0.337542 -1.766101 1.660672
0.337557 -1.780556 1.660748
0.337572 -1.795008 1.660824
0.337587 -1.809459 1.660898
0.337602 -1.823908 1.660970
0.337617 -1.838355 1.661042
0.337631 -1.852801 1.661112
0.337645 -1.867245 1.661180
0.337658 -1.881688 1.661247
0.337672 -1.896129 1.661313
0.346448 -1.910591 1.704492
0.346461 -1.925029 1.704553
0.346473 -1.939466 1.704612
0.346484 -1.953902 1.704669
0.346495 -1.968336 1.704724
0.346506 -1.982770 1.704777
0.346517 -1.997202 1.704828
0.346526 -2.011634 1.704876
0.346536 -2.026065 1.704923
0.346545 -2.040495 1.704966
0.346553 -2.054925 1.705007
0.346561 -2.069354 1.705047
0.346568 -2.083782 1.705083
0.346575 -2.098210 1.705116
0.346581 -2.112638 1.705147
0.346587 -2.127066 1.705175
0.346592 -2.141494 1.705200
0.346597 -2.155921 1.705222
0.346601 -2.170349 1.705241
0.346604 -2.184777 1.705258
0.346606 -2.199205 1.705270
0.346608 -2.213634 1.705280
0.346610 -2.228063 1.705287
0.346611 -2.242493 1.705290
0.346611 -2.256923 1.705290
0.346610 -2.271355 1.705287
0.346608 -2.285786 1.705279
0.346606 -2.300220 1.705269
0.346603 -2.314654 1.705255
0.346600 -2.329089 1.705237
0.346595 -2.343526 1.705216
0.346590 -2.357964 1.705191
0.346585 -2.372403 1.705163
0.355339 -2.386832 1.748234
0.355332 -2.401273 1.748199
0.364085 -2.415702 1.791263
0.381597 -2.430115 1.877419
0.381588 -2.444558 1.877374
0.390337 -2.458985 1.920422
0.390326 -2.473431 1.920369
0.091576 -0.313589 0.359101
0.091570 -0.328116 0.359077
0.102436 -0.342636 0.401688
0.113302 -0.357155 0.444297
0.113295 -0.371684 0.444270
0.124160 -0.386205 0.486876
0.124153 -0.400736 0.486849
0.135018 -0.415258 0.529453
0.156754 -0.429771 0.614686
0.167618 -0.444295 0.657290
0.167611 -0.458829 0.657262
0.167604 -0.473364 0.657235
0.167598 -0.487900 0.657210
0.156721 -0.502445 0.614558
0.156715 -0.516981 0.614536
0.156710 -0.531519 0.614515
0.156705 -0.546056 0.614496
0.156701 -0.560594 0.614479
0.156697 -0.575133 0.614462
0.145824 -0.589676 0.571828
0.145821 -0.604215 0.571816
0.145818 -0.618754 0.571806
0.134949 -0.633296 0.529182
0.124080 -0.647837 0.486562
0.124079 -0.662375 0.486559
0.113213 -0.676914 0.443948
0.102348 -0.691452 0.401341
0.102349 -0.705989 0.401345
0.102350 -0.720527 0.401351
0.102352 -0.735065 0.401359
0.113219 -0.749606 0.443973
0.113222 -0.764145 0.443983
0.113225 -0.778683 0.443997
0.113229 -0.793221 0.444012
0.113234 -0.807759 0.444029
0.124103 -0.822304 0.486651
0.124108 -0.836843 0.486671
0.124114 -0.851381 0.486694
0.113256 -0.865909 0.444117
0.113263 -0.880446 0.444145
0.102407 -0.894971 0.401576
0.091553 -0.909494 0.359010
0.102424 -0.924041 0.401642
0.113297 -0.938588 0.444276
0.113306 -0.953122 0.444314
0.113317 -0.967656 0.444354
0.124191 -0.982205 0.486995
0.124202 -0.996738 0.487040
0.091625 -1.011219 0.359295
0.091638 -1.025749 0.359344
0.091651 -1.040278 0.359394
0.102526 -1.054825 0.402042
0.211191 -1.069547 0.828153
0.254686 -1.084159 0.998712
0.287320 -1.098754 1.126684
0.287335 -1.113291 1.126740
0.287349 -1.127826 1.126798
0.298240 -1.142383 1.169503
0.309132 -1.156938 1.212214
0.320025 -1.171494 1.254929
0.320041 -1.186026 1.254993
0.330936 -1.200580 1.297715
0.341831 -1.215134 1.340441
0.341848 -1.229663 1.340508
0.341866 -1.244190 1.340577
0.352763 -1.258741 1.383309
0.363662 -1.273291 1.426046
0.363680 -1.287814 1.426118
0.374580 -1.302361 1.468858
0.374598 -1.316881 1.468932
0.385499 -1.331426 1.511677
0.385518 -1.345942 1.511752
0.396419 -1.360484 1.554499
0.396439 -1.374997 1.554576
0.396458 -1.389508 1.554653
0.407360 -1.404044 1.597403
0.407380 -1.418551 1.597481
0.407400 -1.433056 1.597559
0.407421 -1.447559 1.597639
0.407441 -1.462059 1.597719
0.407462 -1.476557 1.597800
0.407482 -1.491054 1.597881
0.407503 -1.505548 1.597964
0.407524 -1.520040 1.598046
0.407545 -1.534529 1.598128
0.407566 -1.549016 1.598212
0.407588 -1.563502 1.598294
0.418487 -1.578014 1.641037
0.418508 -1.592495 1.641119
0.418529 -1.606974 1.641201
0.418550 -1.621450 1.641282
0.418571 -1.635925 1.641364
0.418592 -1.650397 1.641445
0.418612 -1.664867 1.641526
0.418633 -1.679335 1.641607
0.418653 -1.693801 1.641686
0.418673 -1.708265 1.641766
0.418694 -1.722727 1.641845
0.418713 -1.737187 1.641922
0.418733 -1.751645 1.642000
0.418752 -1.766101 1.642076
0.418772 -1.780556 1.642151
0.418791 -1.795008 1.642226
0.418809 -1.809459 1.642299
0.418828 -1.823908 1.642370
0.418846 -1.838355 1.642441
0.418863 -1.852801 1.642510
0.418881 -1.867245 1.642578
0.418897 -1.881688 1.642644
0.418914 -1.896129 1.642709
0.418930 -1.910569 1.642772
0.418945 -1.925008 1.642832
0.418960 -1.939445 1.642892
0.418975 -1.953882 1.642949
0.418989 -1.968317 1.643004
0.419003 -1.982752 1.643058
0.419016 -1.997185 1.643108
0.419028 -2.011617 1.643157
0.419040 -2.026049 1.643204
0.419051 -2.040480 1.643248
0.419062 -2.054910 1.643289
0.419072 -2.069340 1.643328
0.419081 -2.083770 1.643364
0.419090 -2.098199 1.643398
0.419098 -2.112628 1.643429
0.419105 -2.127057 1.643457
0.419111 -2.141485 1.643482
0.419117 -2.155914 1.643505
0.419122 -2.170343 1.643524
0.419126 -2.184772 1.643540
0.429998 -2.199205 1.686175
0.430001 -2.213634 1.686184
0.430002 -2.228063 1.686191
0.430003 -2.242493 1.686194
0.430003 -2.256923 1.686194
0.430002 -2.271355 1.686191
0.430000 -2.285786 1.686183
0.429998 -2.300220 1.686173
0.429994 -2.314654 1.686160
0.429990 -2.329089 1.686142
0.429985 -2.343526 1.686121
0.429978 -2.357964 1.686096
0.429971 -2.372403 1.686068
0.429963 -2.386844 1.686036
0.429954 -2.401287 1.686000
0.440813 -2.415717 1.728584
0.462539 -2.430130 1.813780
0.473396 -2.444558 1.856351
0.473383 -2.459003 1.856302
0.473370 -2.473450 1.856250
0.109114 -0.313589 0.354166
0.109107 -0.328116 0.354142
0.122054 -0.342636 0.396168
0.122047 -0.357164 0.396143
0.134993 -0.371684 0.438165
0.147939 -0.386205 0.480185
0.147931 -0.400736 0.480159
0.160876 -0.415258 0.522177
0.160868 -0.429790 0.522151
0.160860 -0.444323 0.522126
0.160853 -0.458857 0.522101
0.160846 -0.473391 0.522078
0.173790 -0.487917 0.564095
0.186736 -0.502445 0.606113
0.186729 -0.516981 0.606091
0.186723 -0.531519 0.606071
0.186717 -0.546056 0.606052
0.186711 -0.560594 0.606035
0.186707 -0.575133 0.606019
0.186702 -0.589672 0.606004
0.173748 -0.604215 0.563958
0.160796 -0.618757 0.521917
0.160794 -0.633296 0.521910
0.147844 -0.647837 0.479876
0.147843 -0.662375 0.479873
0.134895 -0.676914 0.437847
0.121949 -0.691452 0.395826
0.121950 -0.705989 0.395830
0.121952 -0.720527 0.395836
0.121954 -0.735065 0.395844
0.121957 -0.749603 0.395853
0.121961 -0.764140 0.395864
0.134910 -0.778683 0.437895
0.134914 -0.793221 0.437910
0.147865 -0.807765 0.479945
0.160816 -0.822311 0.521983
0.160822 -0.836850 0.522003
0.160829 -0.851389 0.522025
0.160837 -0.865928 0.522049
0.160845 -0.880466 0.522075
0.147908 -0.894993 0.480086
0.134974 -0.909518 0.438102
0.134984 -0.924053 0.438136
0.134995 -0.938588 0.438171
0.135006 -0.953122 0.438208
0.147963 -0.967671 0.480262
0.147975 -0.982205 0.480303
0.160933 -0.996753 0.522362
0.148003 -1.011270 0.480393
0.135074 -1.025784 0.438427
0.122146 -1.040296 0.396466
0.225723 -1.054975 0.732660
0.238688 -1.069528 0.774741
0.303462 -1.084159 0.984988
0.329390 -1.098734 1.069144
0.342364 -1.113291 1.111256
0.355340 -1.127847 1.153374
0.355358 -1.142383 1.153432
0.368335 -1.156938 1.195555
0.368354 -1.171471 1.195618
0.381334 -1.186026 1.237747
0.381354 -1.200557 1.237812
0.394335 -1.215110 1.279948
0.394356 -1.229638 1.280015
0.407339 -1.244190 1.322155
0.420323 -1.258741 1.364300
0.420345 -1.273265 1.364371
0.433331 -1.287814 1.406520
0.433353 -1.302335 1.406593
0.446340 -1.316881 1.448746
0.446363 -1.331399 1.448821
0.459351 -1.345942 1.490978
0.459374 -1.360457 1.491053
0.459398 -1.374969 1.491129
0.472387 -1.389508 1.533289
0.472411 -1.404016 1.533367
0.485400 -1.418551 1.575529
0.485424 -1.433056 1.575606
0.485448 -1.447559 1.575685
0.485473 -1.462059 1.575764
0.485497 -1.476557 1.575844
0.485522 -1.491054 1.575924
0.485547 -1.505548 1.576005
0.485572 -1.520040 1.576086
0.485597 -1.534529 1.576167
0.485622 -1.549016 1.576249
0.485647 -1.563502 1.576331
0.485673 -1.577985 1.576413
0.485698 -1.592466 1.576495
0.485723 -1.606945 1.576576
0.485748 -1.621421 1.576658
0.485774 -1.635895 1.576740
0.485798 -1.650368 1.576821
0.485824 -1.664838 1.576903
0.485848 -1.679307 1.576983
0.485873 -1.693773 1.577063
0.485897 -1.708237 1.577143
0.485922 -1.722699 1.577221
0.485946 -1.737159 1.577300
0.485970 -1.751617 1.577378
0.485993 -1.766074 1.577453
0.486016 -1.780529 1.577529
0.486039 -1.794981 1.577604
0.486062 -1.809433 1.577676
0.486084 -1.823882 1.577749
0.486106 -1.838330 1.577819
0.486127 -1.852777 1.577888
0.486148 -1.867221 1.577956
0.486168 -1.881665 1.578022
0.486188 -1.896106 1.578087
0.486208 -1.910547 1.578150
0.486226 -1.924986 1.578211
0.486245 -1.939425 1.578270
0.486262 -1.953862 1.578327
0.499233 -1.968317 1.620426
0.499249 -1.982752 1.620479
0.499264 -1.997185 1.620529
0.486327 -2.011600 1.578536
0.486341 -2.026033 1.578583
0.486354 -2.040465 1.578626
0.499319 -2.054910 1.620708
0.499331 -2.069340 1.620746
0.499342 -2.083770 1.620782
0.499352 -2.098199 1.620815
0.499362 -2.112628 1.620846
0.499370 -2.127057 1.620873
0.499378 -2.141485 1.620898
0.499385 -2.155914 1.620920
0.499391 -2.170343 1.620939
0.499395 -2.184772 1.620955
0.499399 -2.199201 1.620968
0.499402 -2.213631 1.620978
0.512355 -2.228063 1.663020
0.512356 -2.242493 1.663023
0.512356 -2.256923 1.663023
0.512355 -2.271355 1.663020
0.512353 -2.285786 1.663012
0.512349 -2.300220 1.663002
0.512345 -2.314654 1.662989
0.512340 -2.329089 1.662971
0.512334 -2.343526 1.662951
0.512326 -2.357964 1.662926
0.512318 -2.372403 1.662899
0.512308 -2.386844 1.662867
0.512297 -2.401287 1.662831
0.538186 -2.415702 1.746864
0.564072 -2.430115 1.830885
0.577007 -2.444541 1.872870
0.576992 -2.458985 1.872822
0.576977 -2.473431 1.872771
0.126389 -0.313589 0.348375
0.126380 -0.328116 0.348352
0.141378 -0.342636 0.389691
0.141369 -0.357164 0.389666
0.141360 -0.371694 0.389642
0.156356 -0.386215 0.430976
0.171351 -0.400736 0.472308
0.171342 -0.415267 0.472283
0.171333 -0.429799 0.472258
0.186327 -0.444323 0.513589
0.186319 -0.458857 0.513565
0.186310 -0.473391 0.513542
0.201305 -0.487917 0.554872
0.201297 -0.502453 0.554850
0.201289 -0.516989 0.554830
0.201283 -0.531525 0.554811
0.186275 -0.546069 0.513445
0.201270 -0.560600 0.554777
0.216266 -0.575133 0.596110
0.231262 -0.589667 0.637445
0.216256 -0.604211 0.596083
0.201252 -0.618754 0.554727
0.186250 -0.633296 0.513377
0.171250 -0.647837 0.472030
0.171249 -0.662375 0.472027
0.156251 -0.676914 0.430688
0.156252 -0.691453 0.430689
0.156253 -0.705991 0.430693
0.141259 -0.720527 0.389364
0.156257 -0.735068 0.430704
0.156260 -0.749606 0.430713
0.156264 -0.764145 0.430723
0.156269 -0.778683 0.430736
0.156274 -0.793221 0.430750
0.171275 -0.807765 0.472098
0.186276 -0.822311 0.513448
0.186283 -0.836850 0.513468
0.186291 -0.851389 0.513489
0.186300 -0.865928 0.513513
0.171315 -0.880456 0.472208
0.156331 -0.894982 0.430908
0.156342 -0.909518 0.430939
0.156354 -0.924053 0.430972
0.156367 -0.938588 0.431007
0.156380 -0.953122 0.431043
0.171388 -0.967671 0.472410
0.201390 -0.982235 0.555109
0.201406 -0.996770 0.555151
0.246410 -1.011353 0.679199
0.261424 -1.025905 0.720584
0.276440 -1.040458 0.761973
0.291458 -1.055012 0.803368
0.321479 -1.069585 0.886118
0.366511 -1.084178 1.010245
0.381538 -1.098734 1.051663
0.396566 -1.113291 1.093087
0.396587 -1.127826 1.093143
0.411617 -1.142383 1.134573
0.411639 -1.156916 1.134632
0.426672 -1.171471 1.176069
0.441706 -1.186026 1.217509
0.441729 -1.200557 1.217573
0.456766 -1.215110 1.259020
0.456790 -1.229638 1.259086
0.471828 -1.244190 1.300538
0.471853 -1.258716 1.300606
0.486894 -1.273265 1.342063
0.486919 -1.287788 1.342134
0.501961 -1.302335 1.383595
0.517004 -1.316881 1.425059
0.517030 -1.331399 1.425132
0.517057 -1.345915 1.425206
0.532102 -1.360457 1.466674
0.532129 -1.374969 1.466749
0.532157 -1.389480 1.466825
0.547202 -1.404016 1.508296
0.547230 -1.418523 1.508373
0.547258 -1.433028 1.508450
0.547286 -1.447530 1.508528
0.547315 -1.462031 1.508607
0.547344 -1.476529 1.508687
0.562389 -1.491054 1.550157
0.562418 -1.505548 1.550237
0.562447 -1.520040 1.550316
0.562476 -1.534529 1.550396
0.562505 -1.549016 1.550477
0.562534 -1.563502 1.550557
0.562563 -1.577985 1.550638
0.562593 -1.592466 1.550719
0.562622 -1.606945 1.550799
0.562651 -1.621421 1.550879
0.562680 -1.635895 1.550960
0.562709 -1.650368 1.551040
0.562738 -1.664838 1.551120
0.562767 -1.679307 1.551199
0.562795 -1.693773 1.551278
0.562824 -1.708237 1.551356
0.562852 -1.722699 1.551433
0.562880 -1.737159 1.551511
0.562908 -1.751617 1.551587
0.562935 -1.766074 1.551661
0.562961 -1.780529 1.551736
0.562988 -1.794981 1.551809
0.563014 -1.809433 1.551881
0.563040 -1.823882 1.551952
0.563065 -1.838330 1.552022
0.563090 -1.852777 1.552089
0.563114 -1.867221 1.552156
0.563138 -1.881665 1.552221
0.563161 -1.896106 1.552285
0.563183 -1.910547 1.552346
0.563205 -1.924986 1.552406
0.563226 -1.939425 1.552464
0.563246 -1.953862 1.552521
0.563266 -1.968298 1.552576
0.563285 -1.982733 1.552629
0.563304 -1.997167 1.552678
0.578324 -2.011617 1.594080
0.578340 -2.026049 1.594126
0.578356 -2.040480 1.594168
0.578370 -2.054910 1.594208
0.578384 -2.069340 1.594246
0.578397 -2.083770 1.594281
0.578409 -2.098199 1.594314
0.578420 -2.112628 1.594344
0.578429 -2.127057 1.594371
0.578438 -2.141485 1.594396
0.578446 -2.155914 1.594417
0.578453 -2.170343 1.594437
0.578459 -2.184772 1.594452
0.578463 -2.199201 1.594464
0.578467 -2.213631 1.594474
0.578469 -2.228061 1.594481
0.578470 -2.242492 1.594484
0.578470 -2.256924 1.594483
0.578469 -2.271356 1.594480
0.578467 -2.285789 1.594473
0.578463 -2.300224 1.594463
0.578458 -2.314659 1.594450
0.578452 -2.329096 1.594432
0.578444 -2.343534 1.594412
0.578435 -2.357973 1.594387
0.593427 -2.372403 1.635710
0.593416 -2.386844 1.635679
0.593403 -2.401287 1.635643
0.623391 -2.415702 1.718302
0.653375 -2.430115 1.800949
0.653359 -2.444558 1.800906
0.653342 -2.459003 1.800859
0.653324 -2.473450 1.800808
0.143358 -0.313589 0.341743
0.143348 -0.328116 0.341720
0.143339 -0.342644 0.341697
0.160349 -0.357164 0.382247
0.160339 -0.371694 0.382224
0.177348 -0.386215 0.422770
0.194357 -0.400736 0.463316
0.194346 -0.415267 0.463291
0.194336 -0.429799 0.463267
0.211344 -0.444323 0.503811
0.211334 -0.458857 0.503787
0.228341 -0.473382 0.544330
0.228332 -0.487917 0.544307
0.228323 -0.502453 0.544286
0.228315 -0.516989 0.544267
0.228307 -0.531525 0.544248
0.245315 -0.546056 0.584793
0.262324 -0.560588 0.625340
0.262317 -0.575127 0.625323
0.245296 -0.589672 0.584747
0.245291 -0.604211 0.584734
0.228273 -0.618754 0.544166
0.211257 -0.633296 0.503602
0.194242 -0.647837 0.463043
0.177230 -0.662376 0.422489
0.177230 -0.676914 0.422488
0.177230 -0.691453 0.422489
0.160222 -0.705989 0.381945
0.177234 -0.720529 0.422497
0.177236 -0.735068 0.422504
0.177240 -0.749606 0.422512
0.177244 -0.764145 0.422522
0.177250 -0.778683 0.422535
0.177255 -0.793221 0.422549
0.211279 -0.807772 0.503656
0.228295 -0.822318 0.544220
0.228303 -0.836858 0.544239
0.228312 -0.851397 0.544260
0.228322 -0.865937 0.544283
0.211324 -0.880466 0.503762
0.194327 -0.894993 0.463246
0.194340 -0.909529 0.463275
0.177347 -0.924053 0.422767
0.160355 -0.938575 0.382262
0.160370 -0.953109 0.382298
0.160387 -0.967641 0.382336
0.177409 -0.982189 0.422916
0.177427 -0.996721 0.422958
0.177445 -1.011253 0.423002
0.262502 -1.025871 0.625763
0.296543 -1.040441 0.706911
0.330589 -1.055012 0.788073
0.364641 -1.069585 0.869247
0.415720 -1.084178 0.991010
0.432764 -1.098734 1.031641
0.432786 -1.113271 1.031694
0.449833 -1.127826 1.072331
0.466882 -1.142383 1.112972
0.483932 -1.156938 1.153618
0.483957 -1.171471 1.153677
0.501010 -1.186026 1.194329
0.518065 -1.200580 1.234986
0.518092 -1.215110 1.235049
0.518119 -1.229638 1.235114
0.535177 -1.244190 1.275777
0.535205 -1.258716 1.275844
0.552265 -1.273265 1.316512
0.552294 -1.287788 1.316581
0.569355 -1.302335 1.357252
0.586418 -1.316881 1.397927
0.586448 -1.331399 1.397999
0.603512 -1.345942 1.438677
0.603542 -1.360457 1.438750
0.603573 -1.374969 1.438823
0.603605 -1.389480 1.438898
0.620670 -1.404016 1.479579
0.620702 -1.418523 1.479655
0.620733 -1.433028 1.479730
0.620766 -1.447530 1.479808
0.637831 -1.462059 1.520489
0.637864 -1.476557 1.520566
0.637896 -1.491054 1.520643
0.637929 -1.505548 1.520722
0.637962 -1.520040 1.520800
0.637995 -1.534529 1.520878
0.638028 -1.549016 1.520957
0.638061 -1.563502 1.521036
0.638094 -1.577985 1.521115
0.638127 -1.592466 1.521195
0.638160 -1.606945 1.521273
0.638193 -1.621421 1.521352
0.638227 -1.635895 1.521431
0.638259 -1.650368 1.521510
0.638292 -1.664838 1.521588
0.638325 -1.679307 1.521666
0.638357 -1.693773 1.521743
0.638390 -1.708237 1.521820
0.638421 -1.722699 1.521895
0.638453 -1.737159 1.521972
0.638484 -1.751617 1.522046
0.638515 -1.766074 1.522119
0.638546 -1.780529 1.522192
0.638576 -1.794981 1.522264
0.638605 -1.809433 1.522334
0.638635 -1.823882 1.522404
0.638663 -1.838330 1.522472
0.638691 -1.852777 1.522539
0.638719 -1.867221 1.522605
0.638745 -1.881665 1.522668
0.638772 -1.896106 1.522731
0.638797 -1.910547 1.522791
0.638822 -1.924986 1.522850
0.638846 -1.939425 1.522907
0.638869 -1.953862 1.522963
0.638891 -1.968298 1.523016
0.638913 -1.982733 1.523068
0.638934 -1.997167 1.523117
0.638953 -2.011600 1.523164
0.638972 -2.026033 1.523209
0.638990 -2.040465 1.523251
0.639006 -2.054896 1.523291
0.639022 -2.069327 1.523328
0.639037 -2.083757 1.523364
0.656067 -2.098199 1.563960
0.656079 -2.112628 1.563989
0.656090 -2.127057 1.564016
0.656101 -2.141485 1.564040
0.656109 -2.155914 1.564061
0.656117 -2.170343 1.564080
0.656123 -2.184772 1.564095
0.656129 -2.199201 1.564107
0.656133 -2.213631 1.564117
0.656135 -2.228061 1.564123
0.656137 -2.242492 1.564126
0.656137 -2.256924 1.564126
0.656135 -2.271356 1.564123
0.656132 -2.285789 1.564116
0.656128 -2.300224 1.564106
0.656123 -2.314659 1.564093
0.656115 -2.329096 1.564076
0.673122 -2.343526 1.604617
0.673112 -2.357964 1.604594
0.673101 -2.372403 1.604567
0.673089 -2.386844 1.604537
0.673074 -2.401287 1.604502
0.724102 -2.415688 1.726145
0.741098 -2.430115 1.766661
0.758093 -2.444541 1.807173
0.741061 -2.459003 1.766572
0.741040 -2.473450 1.766523
0.161014 -0.313589 0.333787
0.161003 -0.328116 0.333765
0.180110 -0.342636 0.373373
0.180098 -0.357164 0.373349
0.180087 -0.371694 0.373326
0.199191 -0.386215 0.412929
0.218294 -0.400736 0.452530
0.218282 -0.415267 0.452506
0.218271 -0.429799 0.452482
0.237374 -0.444323 0.492082
0.237362 -0.458857 0.492059
0.256465 -0.473382 0.531659
0.256454 -0.487917 0.531637
0.256444 -0.502453 0.531616
0.237323 -0.516996 0.491978
0.294650 -0.531511 0.610818
0.294641 -0.546049 0.610799
0.294633 -0.560588 0.610783
0.294625 -0.575127 0.610767
0.275507 -0.589672 0.571135
0.256392 -0.604215 0.531508
0.256387 -0.618754 0.531498
0.237275 -0.633296 0.491879
0.218166 -0.647837 0.452264
0.199058 -0.662376 0.412654
0.199058 -0.676914 0.412653
0.199059 -0.691453 0.412654
0.199060 -0.705991 0.412657
0.179958 -0.720527 0.373059
0.179962 -0.735065 0.373067
0.179966 -0.749603 0.373075
0.179971 -0.764140 0.373086
0.179977 -0.778678 0.373099
0.179984 -0.793215 0.373113
0.218197 -0.807765 0.452329
0.237308 -0.822311 0.491948
0.256422 -0.836858 0.531570
0.256431 -0.851397 0.531590
0.256442 -0.865937 0.531612
0.256454 -0.880475 0.531637
0.256467 -0.895014 0.531663
0.237377 -0.909541 0.492090
0.199189 -0.924053 0.412925
0.199205 -0.938588 0.412958
0.199222 -0.953122 0.412994
0.199240 -0.967656 0.413031
0.218360 -0.982205 0.452666
0.237481 -0.996753 0.492305
0.237501 -1.011287 0.492348
0.294832 -1.025871 0.611196
0.333066 -1.040441 0.690455
0.352196 -1.054993 0.730113
0.409551 -1.069585 0.849012
0.466921 -1.084178 0.967941
0.486064 -1.098734 1.007625
0.486089 -1.113271 1.007677
0.505235 -1.127826 1.047368
0.524384 -1.142383 1.087063
0.524411 -1.156916 1.087120
0.543562 -1.171471 1.126821
0.562716 -1.186026 1.166527
0.562745 -1.200557 1.166588
0.581901 -1.215110 1.206299
0.581932 -1.229638 1.206362
0.601090 -1.244190 1.246078
0.601122 -1.258716 1.246144
0.620283 -1.273265 1.285865
0.620315 -1.287788 1.285932
0.639478 -1.302335 1.325657
0.658642 -1.316881 1.365385
0.658676 -1.331399 1.365455
0.658710 -1.345915 1.365526
0.658745 -1.360429 1.365597
0.677911 -1.374969 1.405329
0.677946 -1.389480 1.405403
0.697113 -1.404016 1.445136
0.697149 -1.418523 1.445210
0.697184 -1.433028 1.445284
0.716352 -1.447559 1.485019
0.716388 -1.462059 1.485094
0.716424 -1.476557 1.485169
0.716461 -1.491054 1.485245
0.716498 -1.505548 1.485321
0.716534 -1.520040 1.485397
0.716571 -1.534529 1.485474
0.716609 -1.549016 1.485551
0.716646 -1.563502 1.485628
0.716683 -1.577985 1.485705
0.716721 -1.592466 1.485783
0.716758 -1.606945 1.485860
0.716795 -1.621421 1.485937
0.716832 -1.635895 1.486014
0.716869 -1.650368 1.486090
0.716906 -1.664838 1.486167
0.716942 -1.679307 1.486243
0.716979 -1.693773 1.486318
0.717015 -1.708237 1.486394
0.717051 -1.722699 1.486467
0.717087 -1.737159 1.486542
0.717122 -1.751617 1.486615
0.717156 -1.766074 1.486686
0.717190 -1.780529 1.486757
0.717224 -1.794981 1.486828
0.717258 -1.809433 1.486896
0.717290 -1.823882 1.486964
0.717323 -1.838330 1.487031
0.717354 -1.852777 1.487096
0.717385 -1.867221 1.487160
0.717415 -1.881665 1.487222
0.717444 -1.896106 1.487283
0.717473 -1.910547 1.487342
0.717500 -1.924986 1.487400
0.717527 -1.939425 1.487456
0.717553 -1.953862 1.487510
0.717579 -1.968298 1.487562
0.717603 -1.982733 1.487613
0.717626 -1.997167 1.487660
