0.142199 -0.617555 -0.090242
0.115474 -0.630094 -0.073282
0.115474 -0.642633 -0.073282
0.142199 -0.655172 -0.090242
0.142199 -0.667712 -0.090242
0.168924 -0.680251 -0.107202
0.142199 -0.692790 -0.090242
0.168924 -0.705329 -0.107202
0.195649 -0.717868 -0.124163
0.249100 -0.730407 -0.158083
0.302550 -0.742947 -0.192004
0.302550 -0.755486 -0.192004
0.302550 -0.768025 -0.192004
0.329275 -0.780564 -0.208964
0.356000 -0.793103 -0.225925
0.356000 -0.805643 -0.225925
0.382725 -0.818182 -0.242885
0.382725 -0.830721 -0.242885
0.409451 -0.843260 -0.259845
0.409451 -0.855799 -0.259845
0.409451 -0.868339 -0.259845
0.436176 -0.880878 -0.276806
0.436176 -0.893417 -0.276806
0.462901 -0.905956 -0.293766
0.489626 -0.918495 -0.310726
0.489626 -0.931034 -0.310726
0.516351 -0.943574 -0.327687
0.516351 -0.956113 -0.327687
0.516351 -0.968652 -0.327687
0.516351 -0.981191 -0.327687
0.543076 -0.993730 -0.344647
0.543076 -1.006270 -0.344647
0.543076 -1.018809 -0.344647
0.543076 -1.031348 -0.344647
0.543076 -1.043887 -0.344647
0.543076 -1.056426 -0.344647
0.543076 -1.068965 -0.344647
0.543076 -1.081505 -0.344647
0.543076 -1.094044 -0.344647
0.543076 -1.106583 -0.344647
0.543076 -1.119122 -0.344647
0.543076 -1.131661 -0.344647
0.543076 -1.144201 -0.344647
0.543076 -1.156740 -0.344647
0.543076 -1.169279 -0.344647
0.543076 -1.181818 -0.344647
0.543076 -1.194357 -0.344647
0.543076 -1.206897 -0.344647
0.543076 -1.219436 -0.344647
0.543076 -1.231975 -0.344647
0.543076 -1.244514 -0.344647
0.543076 -1.257053 -0.344647
0.543076 -1.269593 -0.344647
0.543076 -1.282132 -0.344647
0.543076 -1.294671 -0.344647
0.543076 -1.307210 -0.344647
0.543076 -1.319749 -0.344647
0.543076 -1.332289 -0.344647
0.543076 -1.344828 -0.344647
0.543076 -1.357367 -0.344647
0.543076 -1.369906 -0.344647
0.569802 -1.382445 -0.361607
0.569802 -1.394984 -0.361607
0.569802 -1.407523 -0.361607
0.569802 -1.420063 -0.361607
0.569802 -1.432602 -0.361607
0.569802 -1.445141 -0.361607
0.569802 -1.457680 -0.361607
0.569802 -1.470219 -0.361607
0.569802 -1.482759 -0.361607
0.569802 -1.495298 -0.361607
0.569802 -1.501567 -0.361607
0.569802 -1.514107 -0.361607
0.569802 -1.526646 -0.361607
0.569802 -1.539185 -0.361607
0.569802 -1.551724 -0.361607
0.569802 -1.564263 -0.361607
0.649977 -1.576802 -0.412488
0.783603 -1.589342 -0.497289
0.837053 -1.601881 -0.531210
0.837053 -1.614420 -0.531210
0.837053 -1.626959 -0.531210
0.810328 -1.639498 -0.514250
0.783603 -1.652038 -0.497289
0.756878 -1.664577 -0.480329
0.730153 -1.677116 -0.463369
0.462901 -1.689655 -0.293766
0.462901 -1.702194 -0.293766
0.462901 -1.714734 -0.293766
0.462901 -1.727273 -0.293766
0.623252 -1.764890 -0.395528
0.623252 -1.777430 -0.395528
0.623252 -1.789969 -0.395528
0.059982 -0.316614 -0.042407
0.085828 -0.329154 -0.060680
0.111673 -0.341693 -0.078952
0.111673 -0.354232 -0.078952
0.137519 -0.366771 -0.097225
0.137519 -0.379310 -0.097225
0.137519 -0.391850 -0.097225
0.163365 -0.404389 -0.115498
0.163365 -0.416928 -0.115498
0.163365 -0.429467 -0.115498
0.163365 -0.442006 -0.115498
0.137519 -0.454545 -0.097225
0.137519 -0.467085 -0.097225
0.137519 -0.479624 -0.097225
0.111673 -0.492163 -0.078952
0.111673 -0.504702 -0.078952
0.111673 -0.517241 -0.078952
0.111673 -0.529781 -0.078952
0.111673 -0.542320 -0.078952
0.111673 -0.554859 -0.078952
0.085828 -0.567398 -0.060680
0.111673 -0.579937 -0.078952
0.111673 -0.592476 -0.078952
0.111673 -0.605016 -0.078952
0.137519 -0.617555 -0.097225
0.111673 -0.630094 -0.078952
0.111673 -0.642633 -0.078952
0.137519 -0.655172 -0.097225
0.137519 -0.667712 -0.097225
0.163365 -0.680251 -0.115498
0.189210 -0.692790 -0.133770
0.163365 -0.705329 -0.115498
0.189210 -0.717868 -0.133770
0.240902 -0.730407 -0.170316
0.292593 -0.742947 -0.206861
0.292593 -0.755486 -0.206861
0.318438 -0.768025 -0.225134
0.318438 -0.780564 -0.225134
0.344284 -0.793103 -0.243406
0.370130 -0.805643 -0.261679
0.370130 -0.818182 -0.261679
0.370130 -0.830721 -0.261679
0.395975 -0.843260 -0.279952
0.395975 -0.855799 -0.279952
0.421821 -0.868339 -0.298224
0.421821 -0.880878 -0.298224
0.447667 -0.893417 -0.316497
0.447667 -0.905956 -0.316497
0.473512 -0.918495 -0.334770
0.473512 -0.931034 -0.334770
0.499358 -0.943574 -0.353042
0.499358 -0.956113 -0.353042
0.499358 -0.968652 -0.353042
0.525204 -0.981191 -0.371315
0.525204 -0.993730 -0.371315
0.525204 -1.006270 -0.371315
0.525204 -1.018809 -0.371315
0.525204 -1.031348 -0.371315
0.525204 -1.043887 -0.371315
0.525204 -1.056426 -0.371315
0.525204 -1.068965 -0.371315
0.525204 -1.081505 -0.371315
0.525204 -1.094044 -0.371315
0.525204 -1.106583 -0.371315
0.525204 -1.119122 -0.371315
0.525204 -1.131661 -0.371315
0.525204 -1.144201 -0.371315
0.525204 -1.156740 -0.371315
0.525204 -1.169279 -0.371315
0.525204 -1.181818 -0.371315
0.525204 -1.194357 -0.371315
0.551049 -1.206897 -0.389587
0.551049 -1.219436 -0.389587
0.551049 -1.231975 -0.389587
0.551049 -1.244514 -0.389587
0.525204 -1.257053 -0.371315
0.525204 -1.269593 -0.371315
0.525204 -1.282132 -0.371315
0.525204 -1.294671 -0.371315
0.551049 -1.307210 -0.389587
0.551049 -1.319749 -0.389587
0.551049 -1.332289 -0.389587
0.551049 -1.344828 -0.389587
0.551049 -1.357367 -0.389587
0.551049 -1.369906 -0.389587
0.551049 -1.382445 -0.389587
0.551049 -1.394984 -0.389587
0.551049 -1.407523 -0.389587
0.551049 -1.420063 -0.389587
0.551049 -1.432602 -0.389587
0.551049 -1.445141 -0.389587
0.551049 -1.457680 -0.389587
0.551049 -1.470219 -0.389587
0.551049 -1.482759 -0.389587
0.551049 -1.495298 -0.389587
0.551049 -1.501567 -0.389587
0.551049 -1.514107 -0.389587
0.551049 -1.526646 -0.389587
0.551049 -1.539185 -0.389587
0.551049 -1.551724 -0.389587
0.551049 -1.564263 -0.389587
0.602740 -1.576802 -0.426133
0.757814 -1.589342 -0.535769
0.809505 -1.601881 -0.572314
0.809505 -1.614420 -0.572314
0.809505 -1.626959 -0.572314
0.809505 -1.639498 -0.572314
0.783660 -1.652038 -0.554041
0.757814 -1.664577 -0.535769
0.706123 -1.677116 -0.499223
0.447667 -1.689655 -0.316497
0.447667 -1.702194 -0.316497
0.447667 -1.714734 -0.316497
0.473512 -1.727273 -0.334770
0.473512 -1.739812 -0.334770
0.576895 -1.777430 -0.407860
0.057791 -0.316614 -0.045347
0.082693 -0.329154 -0.064886
0.107595 -0.341693 -0.084426
0.107595 -0.354232 -0.084426
0.107595 -0.366771 -0.084426
0.132497 -0.379310 -0.103965
0.132497 -0.391850 -0.103965
0.132497 -0.404389 -0.103965
0.157398 -0.416928 -0.123505
0.157398 -0.429467 -0.123505
0.157398 -0.442006 -0.123505
0.157398 -0.454545 -0.123505
0.132497 -0.467085 -0.103965
0.132497 -0.479624 -0.103965
0.132497 -0.492163 -0.103965
0.107595 -0.504702 -0.084426
0.107595 -0.517241 -0.084426
0.107595 -0.529781 -0.084426
0.107595 -0.542320 -0.084426
0.107595 -0.554859 -0.084426
0.107595 -0.567398 -0.084426
0.107595 -0.579937 -0.084426
0.107595 -0.592476 -0.084426
0.107595 -0.605016 -0.084426
0.132497 -0.617555 -0.103965
0.132497 -0.630094 -0.103965
0.132497 -0.642633 -0.103965
0.132497 -0.655172 -0.103965
0.132497 -0.667712 -0.103965
0.157398 -0.680251 -0.123505
0.157398 -0.692790 -0.123505
0.157398 -0.705329 -0.123505
0.182300 -0.717868 -0.143044
0.207202 -0.730407 -0.162584
0.281907 -0.742947 -0.221202
0.306809 -0.755486 -0.240742
0.306809 -0.768025 -0.240742
0.331710 -0.780564 -0.260281
0.331710 -0.793103 -0.260281
0.331710 -0.805643 -0.260281
0.356612 -0.818182 -0.279821
0.356612 -0.830721 -0.279821
0.381514 -0.843260 -0.299360
0.381514 -0.855799 -0.299360
0.406416 -0.868339 -0.318900
0.406416 -0.880878 -0.318900
0.431317 -0.893417 -0.338439
0.431317 -0.905956 -0.338439
0.456219 -0.918495 -0.357979
0.456219 -0.931034 -0.357979
0.481121 -0.943574 -0.377518
0.481121 -0.956113 -0.377518
0.481121 -0.968652 -0.377518
0.506022 -0.981191 -0.397058
0.506022 -0.993730 -0.397058
0.506022 -1.006270 -0.397058
0.456219 -1.018809 -0.357979
0.456219 -1.031348 -0.357979
0.481121 -1.043887 -0.377518
0.506022 -1.056426 -0.397058
0.506022 -1.068965 -0.397058
0.506022 -1.081505 -0.397058
0.506022 -1.094044 -0.397058
0.506022 -1.106583 -0.397058
0.506022 -1.119122 -0.397058
0.506022 -1.131661 -0.397058
0.506022 -1.144201 -0.397058
0.506022 -1.156740 -0.397058
0.506022 -1.169279 -0.397058
0.506022 -1.181818 -0.397058
0.530924 -1.194357 -0.416597
0.530924 -1.206897 -0.416597
0.530924 -1.219436 -0.416597
0.530924 -1.231975 -0.416597
0.530924 -1.244514 -0.416597
0.530924 -1.257053 -0.416597
0.530924 -1.269593 -0.416597
0.530924 -1.282132 -0.416597
0.530924 -1.294671 -0.416597
0.530924 -1.307210 -0.416597
0.530924 -1.319749 -0.416597
0.530924 -1.332289 -0.416597
0.530924 -1.344828 -0.416597
0.530924 -1.357367 -0.416597
0.530924 -1.369906 -0.416597
0.530924 -1.382445 -0.416597
0.530924 -1.394984 -0.416597
0.530924 -1.407523 -0.416597
0.530924 -1.420063 -0.416597
0.530924 -1.432602 -0.416597
0.530924 -1.445141 -0.416597
0.530924 -1.457680 -0.416597
0.530924 -1.470219 -0.416597
0.530924 -1.482759 -0.416597
0.530924 -1.495298 -0.416597
0.530924 -1.501567 -0.416597
0.530924 -1.514107 -0.416597
0.530924 -1.526646 -0.416597
0.555826 -1.539185 -0.436137
0.555826 -1.551724 -0.436137
0.555826 -1.564263 -0.436137
0.580727 -1.576802 -0.455676
0.730138 -1.589342 -0.572913
0.779941 -1.601881 -0.611992
0.804843 -1.614420 -0.631531
0.779941 -1.626959 -0.611992
0.779941 -1.639498 -0.611992
0.755039 -1.652038 -0.592452
0.730138 -1.664577 -0.572913
0.680334 -1.677116 -0.533834
0.456219 -1.689655 -0.357979
0.431317 -1.702194 -0.338439
0.431317 -1.714734 -0.338439
0.456219 -1.727273 -0.357979
0.456219 -1.739812 -0.357979
0.580727 -1.777430 -0.455676
0.580727 -1.789969 -0.455676
0.079353 -0.316614 -0.068932
0.079353 -0.329154 -0.068932
0.103248 -0.341693 -0.089689
0.103248 -0.354232 -0.089689
0.103248 -0.366771 -0.089689
0.127144 -0.379310 -0.110447
0.127144 -0.391850 -0.110447
0.127144 -0.404389 -0.110447
0.151040 -0.416928 -0.131205
0.151040 -0.429467 -0.131205
0.151040 -0.442006 -0.131205
0.127144 -0.454545 -0.110447
0.127144 -0.467085 -0.110447
0.127144 -0.479624 -0.110447
0.103248 -0.492163 -0.089689
0.103248 -0.504702 -0.089689
0.103248 -0.517241 -0.089689
0.103248 -0.529781 -0.089689
0.103248 -0.542320 -0.089689
0.103248 -0.554859 -0.089689
0.103248 -0.567398 -0.089689
0.079353 -0.579937 -0.068932
0.079353 -0.592476 -0.068932
0.103248 -0.605016 -0.089689
0.103248 -0.617555 -0.089689
0.127144 -0.630094 -0.110447
0.127144 -0.642633 -0.110447
0.127144 -0.655172 -0.110447
0.127144 -0.667712 -0.110447
0.127144 -0.680251 -0.110447
0.151040 -0.692790 -0.131205
0.174936 -0.705329 -0.151962
0.198831 -0.717868 -0.172720
0.198831 -0.730407 -0.172720
0.270519 -0.742947 -0.234993
0.270519 -0.755486 -0.234993
0.294414 -0.768025 -0.255750
0.294414 -0.780564 -0.255750
0.318310 -0.793103 -0.276508
0.318310 -0.805643 -0.276508
0.342206 -0.818182 -0.297266
0.342206 -0.830721 -0.297266
0.366102 -0.843260 -0.318023
0.366102 -0.855799 -0.318023
0.389998 -0.868339 -0.338781
0.389998 -0.880878 -0.338781
0.413893 -0.893417 -0.359539
0.413893 -0.905956 -0.359539
0.437789 -0.918495 -0.380296
0.437789 -0.931034 -0.380296
0.461685 -0.943574 -0.401054
0.461685 -0.956113 -0.401054
0.485581 -0.968652 -0.421812
0.485581 -0.981191 -0.421812
0.485581 -0.993730 -0.421812
0.485581 -1.006270 -0.421812
0.485581 -1.018809 -0.421812
0.509476 -1.031348 -0.442569
0.509476 -1.043887 -0.442569
0.485581 -1.056426 -0.421812
0.485581 -1.068965 -0.421812
0.485581 -1.081505 -0.421812
0.485581 -1.094044 -0.421812
0.509476 -1.106583 -0.442569
0.509476 -1.119122 -0.442569
0.509476 -1.131661 -0.442569
0.509476 -1.144201 -0.442569
0.509476 -1.156740 -0.442569
0.509476 -1.169279 -0.442569
0.509476 -1.181818 -0.442569
0.509476 -1.194357 -0.442569
0.509476 -1.206897 -0.442569
0.509476 -1.219436 -0.442569
0.509476 -1.231975 -0.442569
0.509476 -1.244514 -0.442569
0.509476 -1.257053 -0.442569
0.509476 -1.269593 -0.442569
0.509476 -1.282132 -0.442569
0.509476 -1.294671 -0.442569
0.509476 -1.307210 -0.442569
0.509476 -1.319749 -0.442569
0.509476 -1.332289 -0.442569
0.509476 -1.344828 -0.442569
0.509476 -1.357367 -0.442569
0.509476 -1.369906 -0.442569
0.509476 -1.382445 -0.442569
0.509476 -1.394984 -0.442569
0.509476 -1.407523 -0.442569
0.509476 -1.420063 -0.442569
0.509476 -1.432602 -0.442569
0.533372 -1.445141 -0.463327
0.533372 -1.457680 -0.463327
0.533372 -1.470219 -0.463327
0.533372 -1.482759 -0.463327
0.533372 -1.495298 -0.463327
0.533372 -1.501567 -0.463327
0.533372 -1.514107 -0.463327
0.533372 -1.526646 -0.463327
0.533372 -1.539185 -0.463327
0.533372 -1.551724 -0.463327
0.533372 -1.564263 -0.463327
0.557268 -1.576802 -0.484084
0.581163 -1.589342 -0.504842
0.724538 -1.601881 -0.629388
0.772330 -1.614420 -0.670903
0.772330 -1.626959 -0.670903
0.772330 -1.639498 -0.670903
0.748434 -1.652038 -0.650146
0.724538 -1.664577 -0.629388
0.700642 -1.677116 -0.608630
0.437789 -1.689655 -0.380296
0.413893 -1.702194 -0.359539
0.413893 -1.714734 -0.359539
0.437789 -1.727273 -0.380296
0.437789 -1.739812 -0.380296
0.557268 -1.764890 -0.484084
0.557268 -1.777430 -0.484084
0.557268 -1.789969 -0.484084
0.581163 -1.802508 -0.504842
0.052984 -0.316614 -0.050881
0.075814 -0.329154 -0.072805
0.098645 -0.341693 -0.094729
0.098645 -0.354232 -0.094729
0.098645 -0.366771 -0.094729
0.121475 -0.379310 -0.116653
0.121475 -0.391850 -0.116653
0.144305 -0.404389 -0.138577
0.144305 -0.416928 -0.138577
0.121475 -0.429467 -0.116653
0.121475 -0.442006 -0.116653
0.121475 -0.454545 -0.116653
0.121475 -0.467085 -0.116653
0.098645 -0.479624 -0.094729
0.098645 -0.492163 -0.094729
0.098645 -0.504702 -0.094729
0.098645 -0.517241 -0.094729
0.075814 -0.529781 -0.072805
0.075814 -0.542320 -0.072805
0.075814 -0.554859 -0.072805
0.075814 -0.567398 -0.072805
0.075814 -0.579937 -0.072805
0.075814 -0.592476 -0.072805
0.075814 -0.605016 -0.072805
0.098645 -0.617555 -0.094729
0.098645 -0.630094 -0.094729
0.098645 -0.642633 -0.094729
0.121475 -0.655172 -0.116653
0.121475 -0.667712 -0.116653
0.144305 -0.680251 -0.138577
0.144305 -0.692790 -0.138577
0.167136 -0.705329 -0.160501
0.189966 -0.717868 -0.182425
0.212796 -0.730407 -0.204350
0.258457 -0.742947 -0.248198
0.281287 -0.755486 -0.270122
0.281287 -0.768025 -0.270122
0.304117 -0.780564 -0.292046
0.304117 -0.793103 -0.292046
0.326948 -0.805643 -0.313970
0.326948 -0.818182 -0.313970
0.349778 -0.830721 -0.335894
0.349778 -0.843260 -0.335894
0.372608 -0.855799 -0.357818
0.372608 -0.868339 -0.357818
0.395439 -0.880878 -0.379742
0.395439 -0.893417 -0.379742
0.418269 -0.905956 -0.401666
0.418269 -0.918495 -0.401666
0.441099 -0.931034 -0.423590
0.441099 -0.943574 -0.423590
0.463929 -0.956113 -0.445514
0.463929 -0.968652 -0.445514
0.463929 -0.981191 -0.445514
0.463929 -0.993730 -0.445514
0.463929 -1.006270 -0.445514
0.486760 -1.018809 -0.467438
0.486760 -1.031348 -0.467438
0.486760 -1.043887 -0.467438
0.486760 -1.056426 -0.467438
0.486760 -1.068965 -0.467438
0.486760 -1.081505 -0.467438
0.486760 -1.094044 -0.467438
0.486760 -1.106583 -0.467438
0.486760 -1.119122 -0.467438
0.486760 -1.131661 -0.467438
0.486760 -1.144201 -0.467438
0.486760 -1.156740 -0.467438
0.486760 -1.169279 -0.467438
0.486760 -1.181818 -0.467438
0.486760 -1.194357 -0.467438
0.486760 -1.206897 -0.467438
0.486760 -1.219436 -0.467438
0.486760 -1.231975 -0.467438
0.509590 -1.244514 -0.489362
0.509590 -1.257053 -0.489362
0.509590 -1.269593 -0.489362
0.509590 -1.282132 -0.489362
0.509590 -1.294671 -0.489362
0.509590 -1.307210 -0.489362
0.509590 -1.319749 -0.489362
0.509590 -1.332289 -0.489362
0.509590 -1.344828 -0.489362
0.509590 -1.357367 -0.489362
0.509590 -1.369906 -0.489362
0.509590 -1.382445 -0.489362
0.509590 -1.394984 -0.489362
0.509590 -1.407523 -0.489362
0.509590 -1.420063 -0.489362
0.509590 -1.432602 -0.489362
0.509590 -1.445141 -0.489362
0.509590 -1.457680 -0.489362
0.509590 -1.470219 -0.489362
0.509590 -1.482759 -0.489362
0.509590 -1.495298 -0.489362
0.509590 -1.501567 -0.489362
0.509590 -1.514107 -0.489362
0.509590 -1.526646 -0.489362
0.509590 -1.539185 -0.489362
0.509590 -1.551724 -0.489362
0.509590 -1.564263 -0.489362
0.509590 -1.576802 -0.489362
0.555251 -1.589342 -0.533211
0.692232 -1.601881 -0.664755
0.737893 -1.614420 -0.708603
0.760723 -1.626959 -0.730527
0.760723 -1.639498 -0.730527
0.737893 -1.652038 -0.708603
0.715063 -1.664577 -0.686679
0.692232 -1.677116 -0.664755
0.441099 -1.689655 -0.423590
0.395439 -1.702194 -0.379742
0.418269 -1.714734 -0.401666
0.418269 -1.727273 -0.401666
0.441099 -1.739812 -0.423590
0.532420 -1.777430 -0.511286
0.532420 -1.789969 -0.511286
0.555251 -1.802508 -0.533211
0.050379 -0.316614 -0.053461
0.072087 -0.329154 -0.076497
0.093795 -0.341693 -0.099533
0.093795 -0.354232 -0.099533
0.093795 -0.366771 -0.099533
0.115503 -0.379310 -0.122569
0.115503 -0.391850 -0.122569
0.115503 -0.404389 -0.122569
0.115503 -0.416928 -0.122569
0.115503 -0.429467 -0.122569
0.115503 -0.442006 -0.122569
0.115503 -0.454545 -0.122569
0.115503 -0.467085 -0.122569
0.115503 -0.479624 -0.122569
0.093795 -0.492163 -0.099533
0.093795 -0.504702 -0.099533
0.093795 -0.517241 -0.099533
0.072087 -0.529781 -0.076497
0.072087 -0.542320 -0.076497
0.072087 -0.554859 -0.076497
0.072087 -0.567398 -0.076497
0.093795 -0.579937 -0.099533
0.093795 -0.592476 -0.099533
0.072087 -0.605016 -0.076497
0.093795 -0.617555 -0.099533
0.093795 -0.630094 -0.099533
0.115503 -0.642633 -0.122569
0.115503 -0.655172 -0.122569
0.137211 -0.667712 -0.145605
0.158919 -0.680251 -0.168641
0.158919 -0.692790 -0.168641
0.158919 -0.705329 -0.168641
0.180627 -0.717868 -0.191677
0.224043 -0.730407 -0.237749
0.245751 -0.742947 -0.260784
0.267459 -0.755486 -0.283820
0.267459 -0.768025 -0.283820
0.289167 -0.780564 -0.306856
0.289167 -0.793103 -0.306856
0.310875 -0.805643 -0.329892
0.310875 -0.818182 -0.329892
0.332583 -0.830721 -0.352928
0.332583 -0.843260 -0.352928
0.354290 -0.855799 -0.375964
0.354290 -0.868339 -0.375964
0.375998 -0.880878 -0.399000
0.375998 -0.893417 -0.399000
0.397706 -0.905956 -0.422036
0.397706 -0.918495 -0.422036
0.419414 -0.931034 -0.445072
0.419414 -0.943574 -0.445072
0.441122 -0.956113 -0.468108
0.441122 -0.968652 -0.468108
0.441122 -0.981191 -0.468108
0.462830 -0.993730 -0.491143
0.462830 -1.006270 -0.491143
0.462830 -1.018809 -0.491143
0.462830 -1.031348 -0.491143
0.462830 -1.043887 -0.491143
0.462830 -1.056426 -0.491143
0.462830 -1.068965 -0.491143
0.462830 -1.081505 -0.491143
0.462830 -1.094044 -0.491143
0.484538 -1.106583 -0.514179
0.484538 -1.119122 -0.514179
0.484538 -1.131661 -0.514179
0.484538 -1.144201 -0.514179
0.484538 -1.156740 -0.514179
0.506246 -1.169279 -0.537215
0.506246 -1.181818 -0.537215
0.484538 -1.194357 -0.514179
0.484538 -1.206897 -0.514179
0.484538 -1.219436 -0.514179
0.484538 -1.231975 -0.514179
0.484538 -1.244514 -0.514179
0.484538 -1.257053 -0.514179
0.484538 -1.269593 -0.514179
0.484538 -1.282132 -0.514179
0.484538 -1.294671 -0.514179
0.484538 -1.307210 -0.514179
0.484538 -1.319749 -0.514179
0.484538 -1.332289 -0.514179
0.484538 -1.344828 -0.514179
0.484538 -1.357367 -0.514179
0.484538 -1.369906 -0.514179
0.484538 -1.382445 -0.514179
0.484538 -1.394984 -0.514179
0.484538 -1.407523 -0.514179
0.484538 -1.420063 -0.514179
0.484538 -1.432602 -0.514179
0.484538 -1.445141 -0.514179
0.484538 -1.457680 -0.514179
0.484538 -1.470219 -0.514179
0.484538 -1.482759 -0.514179
0.484538 -1.495298 -0.514179
0.506246 -1.501567 -0.537215
0.506246 -1.514107 -0.537215
0.506246 -1.526646 -0.537215
0.506246 -1.539185 -0.537215
0.506246 -1.551724 -0.537215
0.506246 -1.564263 -0.537215
0.506246 -1.576802 -0.537215
0.527954 -1.589342 -0.560251
0.679909 -1.601881 -0.721502
0.723325 -1.614420 -0.767574
0.723325 -1.626959 -0.767574
0.723325 -1.639498 -0.767574
0.723325 -1.652038 -0.767574
0.701617 -1.664577 -0.744538
0.679909 -1.677116 -0.721502
0.636493 -1.689655 -0.675431
0.397706 -1.702194 -0.422036
0.397706 -1.714734 -0.422036
0.397706 -1.727273 -0.422036
0.397706 -1.739812 -0.422036
0.047649 -0.316614 -0.055908
0.068181 -0.329154 -0.079999
0.088712 -0.341693 -0.104089
0.088712 -0.354232 -0.104089
0.088712 -0.366771 -0.104089
0.109244 -0.379310 -0.128179
0.109244 -0.391850 -0.128179
0.109244 -0.404389 -0.128179
0.109244 -0.416928 -0.128179
0.109244 -0.429467 -0.128179
0.109244 -0.442006 -0.128179
0.109244 -0.454545 -0.128179
0.088712 -0.467085 -0.104089
0.088712 -0.479624 -0.104089
0.088712 -0.492163 -0.104089
0.088712 -0.504702 -0.104089
0.088712 -0.517241 -0.104089
0.068181 -0.529781 -0.079999
0.068181 -0.542320 -0.079999
0.068181 -0.554859 -0.079999
0.068181 -0.567398 -0.079999
0.068181 -0.579937 -0.079999
0.088712 -0.592476 -0.104089
0.088712 -0.605016 -0.104089
0.088712 -0.617555 -0.104089
0.109244 -0.630094 -0.128179
0.088712 -0.642633 -0.104089
0.109244 -0.655172 -0.128179
0.109244 -0.667712 -0.128179
0.109244 -0.680251 -0.128179
0.129775 -0.692790 -0.152270
0.150307 -0.705329 -0.176360
0.170839 -0.717868 -0.200450
0.191370 -0.730407 -0.224541
0.232433 -0.742947 -0.272721
0.252965 -0.755486 -0.296811
0.252965 -0.768025 -0.296811
0.273496 -0.780564 -0.320902
0.273496 -0.793103 -0.320902
0.294028 -0.805643 -0.344992
0.314559 -0.818182 -0.369082
0.314559 -0.830721 -0.369082
0.335091 -0.843260 -0.393173
0.335091 -0.855799 -0.393173
0.355622 -0.868339 -0.417263
0.355622 -0.880878 -0.417263
0.376154 -0.893417 -0.441353
0.376154 -0.905956 -0.441353
0.376154 -0.918495 -0.441353
0.396685 -0.931034 -0.465444
0.417217 -0.943574 -0.489534
0.417217 -0.956113 -0.489534
0.417217 -0.968652 -0.489534
0.437748 -0.981191 -0.513624
0.437748 -0.993730 -0.513624
0.437748 -1.006270 -0.513624
0.437748 -1.018809 -0.513624
0.458280 -1.031348 -0.537714
0.458280 -1.043887 -0.537714
0.458280 -1.056426 -0.537714
0.458280 -1.068965 -0.537714
0.458280 -1.081505 -0.537714
0.458280 -1.094044 -0.537714
0.458280 -1.106583 -0.537714
0.458280 -1.119122 -0.537714
0.458280 -1.131661 -0.537714
0.458280 -1.144201 -0.537714
0.458280 -1.156740 -0.537714
0.458280 -1.169279 -0.537714
0.458280 -1.181818 -0.537714
0.458280 -1.194357 -0.537714
0.458280 -1.206897 -0.537714
0.458280 -1.219436 -0.537714
0.458280 -1.231975 -0.537714
0.458280 -1.244514 -0.537714
0.458280 -1.257053 -0.537714
0.478811 -1.269593 -0.561805
0.478811 -1.282132 -0.561805
0.478811 -1.294671 -0.561805
0.478811 -1.307210 -0.561805
0.478811 -1.319749 -0.561805
0.478811 -1.332289 -0.561805
0.478811 -1.344828 -0.561805
0.478811 -1.357367 -0.561805
0.478811 -1.369906 -0.561805
0.478811 -1.382445 -0.561805
0.478811 -1.394984 -0.561805
0.478811 -1.407523 -0.561805
0.478811 -1.420063 -0.561805
0.478811 -1.432602 -0.561805
0.458280 -1.445141 -0.537714
0.458280 -1.457680 -0.537714
0.478811 -1.470219 -0.561805
0.478811 -1.482759 -0.561805
0.478811 -1.495298 -0.561805
0.478811 -1.501567 -0.561805
0.478811 -1.514107 -0.561805
0.478811 -1.526646 -0.561805
0.478811 -1.539185 -0.561805
0.478811 -1.551724 -0.561805
0.478811 -1.564263 -0.561805
0.478811 -1.576802 -0.561805
0.478811 -1.589342 -0.561805
0.499343 -1.601881 -0.585895
0.663595 -1.614420 -0.778618
0.704658 -1.626959 -0.826798
0.704658 -1.639498 -0.826798
0.704658 -1.652038 -0.826798
0.684127 -1.664577 -0.802708
0.663595 -1.677116 -0.778618
0.643064 -1.689655 -0.754527
0.581469 -1.702194 -0.682256
0.376154 -1.714734 -0.441353
0.376154 -1.727273 -0.441353
0.396685 -1.739812 -0.465444
0.417217 -1.752351 -0.489534
0.044800 -0.316614 -0.058216
0.064104 -0.329154 -0.083301
0.064104 -0.341693 -0.083301
0.083408 -0.354232 -0.108386
0.083408 -0.366771 -0.108386
0.102712 -0.379310 -0.133470
0.102712 -0.391850 -0.133470
0.102712 -0.404389 -0.133470
0.102712 -0.416928 -0.133470
0.083408 -0.429467 -0.108386
0.083408 -0.442006 -0.108386
0.083408 -0.454545 -0.108386
0.102712 -0.467085 -0.133470
0.083408 -0.479624 -0.108386
0.064104 -0.492163 -0.083301
0.064104 -0.504702 -0.083301
0.064104 -0.517241 -0.083301
0.064104 -0.529781 -0.083301
0.064104 -0.542320 -0.083301
0.064104 -0.554859 -0.083301
0.083408 -0.567398 -0.108386
0.064104 -0.579937 -0.083301
0.064104 -0.592476 -0.083301
0.083408 -0.605016 -0.108386
0.083408 -0.617555 -0.108386
0.102712 -0.630094 -0.133470
0.102712 -0.642633 -0.133470
0.102712 -0.655172 -0.133470
0.102712 -0.667712 -0.133470
0.102712 -0.680251 -0.133470
0.141320 -0.692790 -0.183640
0.160624 -0.705329 -0.208725
0.179928 -0.717868 -0.233809
0.199232 -0.730407 -0.258894
0.218536 -0.742947 -0.283979
0.237840 -0.755486 -0.309063
0.257144 -0.768025 -0.334148
0.257144 -0.780564 -0.334148
0.276448 -0.793103 -0.359233
0.276448 -0.805643 -0.359233
0.295752 -0.818182 -0.384318
0.295752 -0.830721 -0.384318
0.315056 -0.843260 -0.409402
0.315056 -0.855799 -0.409402
0.334360 -0.868339 -0.434487
0.353664 -0.880878 -0.459572
0.353664 -0.893417 -0.459572
0.372968 -0.905956 -0.484657
0.372968 -0.918495 -0.484657
0.372968 -0.931034 -0.484657
0.392272 -0.943574 -0.509741
0.411576 -0.956113 -0.534826
0.411576 -0.968652 -0.534826
0.411576 -0.981191 -0.534826
0.430880 -0.993730 -0.559911
0.430880 -1.006270 -0.559911
0.430880 -1.018809 -0.559911
0.430880 -1.031348 -0.559911
0.430880 -1.043887 -0.559911
0.430880 -1.056426 -0.559911
0.430880 -1.068965 -0.559911
0.430880 -1.081505 -0.559911
0.430880 -1.094044 -0.559911
0.430880 -1.106583 -0.559911
0.430880 -1.119122 -0.559911
0.430880 -1.131661 -0.559911
0.430880 -1.144201 -0.559911
0.450184 -1.156740 -0.584995
0.450184 -1.169279 -0.584995
0.450184 -1.181818 -0.584995
0.450184 -1.194357 -0.584995
0.450184 -1.206897 -0.584995
0.450184 -1.219436 -0.584995
0.450184 -1.231975 -0.584995
0.450184 -1.244514 -0.584995
0.450184 -1.257053 -0.584995
0.450184 -1.269593 -0.584995
0.450184 -1.282132 -0.584995
0.450184 -1.294671 -0.584995
0.450184 -1.307210 -0.584995
0.450184 -1.319749 -0.584995
0.450184 -1.332289 -0.584995
0.450184 -1.344828 -0.584995
0.450184 -1.357367 -0.584995
0.450184 -1.369906 -0.584995
0.450184 -1.382445 -0.584995
0.450184 -1.394984 -0.584995
0.450184 -1.407523 -0.584995
0.450184 -1.420063 -0.584995
0.450184 -1.432602 -0.584995
0.450184 -1.445141 -0.584995
0.450184 -1.457680 -0.584995
0.450184 -1.470219 -0.584995
0.450184 -1.482759 -0.584995
0.450184 -1.495298 -0.584995
0.469488 -1.501567 -0.610080
0.469488 -1.514107 -0.610080
0.469488 -1.526646 -0.610080
0.469488 -1.539185 -0.610080
0.469488 -1.551724 -0.610080
0.469488 -1.564263 -0.610080
0.469488 -1.576802 -0.610080
0.469488 -1.589342 -0.610080
0.488792 -1.601881 -0.635165
0.643224 -1.614420 -0.835843
0.662528 -1.626959 -0.860927
0.681832 -1.639498 -0.886012
0.681832 -1.652038 -0.886012
0.681832 -1.664577 -0.886012
0.662528 -1.677116 -0.860927
0.643224 -1.689655 -0.835843
0.566008 -1.702194 -0.735504
0.372968 -1.714734 -0.484657
0.372968 -1.727273 -0.484657
0.372968 -1.739812 -0.484657
0.392272 -1.752351 -0.509741
-0.040105 -0.304075 -0.011804
-0.070470 -0.316614 -0.020740
-0.100835 -0.329154 -0.029677
-0.100835 -0.341693 -0.029677
-0.131200 -0.354232 -0.038614
-0.131200 -0.366771 -0.038614
-0.131200 -0.379310 -0.038614
-0.161564 -0.391850 -0.047551
-0.191929 -0.404389 -0.056488
-0.191929 -0.416928 -0.056488
-0.191929 -0.429467 -0.056488
-0.191929 -0.442006 -0.056488
-0.161564 -0.454545 -0.047551
-0.131200 -0.467085 -0.038614
-0.131200 -0.479624 -0.038614
-0.100835 -0.492163 -0.029677
-0.100835 -0.504702 -0.029677
-0.100835 -0.517241 -0.029677
-0.070470 -0.529781 -0.020740
-0.070470 -0.542320 -0.020740
-0.100835 -0.554859 -0.029677
-0.100835 -0.567398 -0.029677
-0.070470 -0.579937 -0.020740
-0.100835 -0.592476 -0.029677
-0.100835 -0.605016 -0.029677
-0.100835 -0.617555 -0.029677
-0.131200 -0.630094 -0.038614
-0.131200 -0.642633 -0.038614
-0.161564 -0.655172 -0.047551
-0.191929 -0.667712 -0.056488
-0.191929 -0.680251 -0.056488
-0.222294 -0.692790 -0.065425
-0.283024 -0.705329 -0.083298
-0.313388 -0.717868 -0.092235
-0.374118 -0.730407 -0.110109
-0.374118 -0.742947 -0.110109
-0.404483 -0.755486 -0.119046
-0.434847 -0.768025 -0.127983
-0.465212 -0.780564 -0.136919
-0.465212 -0.793103 -0.136919
-0.495577 -0.805643 -0.145856
-0.525942 -0.818182 -0.154793
-0.525942 -0.830721 -0.154793
-0.556307 -0.843260 -0.163730
-0.586671 -0.855799 -0.172667
-0.586671 -0.868339 -0.172667
-0.617036 -0.880878 -0.181604
-0.617036 -0.893417 -0.181604
-0.647401 -0.905956 -0.190540
-0.677766 -0.918495 -0.199477
-0.677766 -0.931034 -0.199477
-0.708130 -0.943574 -0.208414
-0.708130 -0.956113 -0.208414
-0.738495 -0.968652 -0.217351
-0.738495 -0.981191 -0.217351
-0.768860 -0.993730 -0.226288
-0.768860 -1.006270 -0.226288
-0.768860 -1.018809 -0.226288
-0.768860 -1.031348 -0.226288
-0.768860 -1.043887 -0.226288
-0.768860 -1.056426 -0.226288
-0.768860 -1.068965 -0.226288
-0.768860 -1.081505 -0.226288
-0.768860 -1.094044 -0.226288
-0.768860 -1.106583 -0.226288
-0.768860 -1.119122 -0.226288
-0.768860 -1.131661 -0.226288
-0.799225 -1.144201 -0.235225
-0.799225 -1.156740 -0.235225
-0.799225 -1.169279 -0.235225
-0.799225 -1.181818 -0.235225
-0.799225 -1.194357 -0.235225
-0.799225 -1.206897 -0.235225
-0.799225 -1.219436 -0.235225
-0.799225 -1.231975 -0.235225
-0.799225 -1.244514 -0.235225
-0.799225 -1.257053 -0.235225
-0.799225 -1.269593 -0.235225
-0.799225 -1.282132 -0.235225
-0.799225 -1.294671 -0.235225
-0.799225 -1.307210 -0.235225
-0.799225 -1.319749 -0.235225
-0.799225 -1.332289 -0.235225
-0.799225 -1.344828 -0.235225
-0.799225 -1.357367 -0.235225
-0.799225 -1.369906 -0.235225
-0.799225 -1.382445 -0.235225
-0.799225 -1.394984 -0.235225
-0.799225 -1.407523 -0.235225
-0.799225 -1.420063 -0.235225
-0.799225 -1.432602 -0.235225
-0.799225 -1.445141 -0.235225
-0.799225 -1.457680 -0.235225
-0.829589 -1.470219 -0.244161
-0.829589 -1.482759 -0.244161
-0.829589 -1.495298 -0.244161
-0.829589 -1.501567 -0.244161
-0.829589 -1.514107 -0.244161
-0.829589 -1.526646 -0.244161
-0.829589 -1.539185 -0.244161
-0.829589 -1.551724 -0.244161
-0.829589 -1.564263 -0.244161
-0.829589 -1.576802 -0.244161
-0.829589 -1.589342 -0.244161
-0.829589 -1.601881 -0.244161
-0.829589 -1.614420 -0.244161
-0.859954 -1.626959 -0.253098
-1.072508 -1.639498 -0.315656
-1.133237 -1.652038 -0.333530
-1.163602 -1.664577 -0.342467
-1.163602 -1.677116 -0.342467
-1.163602 -1.689655 -0.342467
-1.133237 -1.702194 -0.333530
0.041840 -0.316614 -0.060379
0.059868 -0.329154 -0.086396
0.059868 -0.341693 -0.086396
0.077896 -0.354232 -0.112412
0.077896 -0.366771 -0.112412
0.095925 -0.379310 -0.138429
0.095925 -0.391850 -0.138429
0.095925 -0.404389 -0.138429
0.095925 -0.416928 -0.138429
0.095925 -0.429467 -0.138429
0.077896 -0.442006 -0.112412
0.077896 -0.454545 -0.112412
0.077896 -0.467085 -0.112412
0.077896 -0.479624 -0.112412
0.077896 -0.492163 -0.112412
0.059868 -0.504702 -0.086396
0.059868 -0.517241 -0.086396
0.059868 -0.529781 -0.086396
0.059868 -0.542320 -0.086396
0.059868 -0.554859 -0.086396
0.059868 -0.567398 -0.086396
0.059868 -0.579937 -0.086396
0.059868 -0.592476 -0.086396
0.077896 -0.605016 -0.112412
0.077896 -0.617555 -0.112412
0.077896 -0.630094 -0.112412
0.077896 -0.642633 -0.112412
0.095925 -0.655172 -0.138429
0.095925 -0.667712 -0.138429
0.113953 -0.680251 -0.164446
0.131981 -0.692790 -0.190462
0.150010 -0.705329 -0.216479
0.150010 -0.717868 -0.216479
0.204094 -0.730407 -0.294529
0.204094 -0.742947 -0.294529
0.222123 -0.755486 -0.320546
0.240151 -0.768025 -0.346562
0.240151 -0.780564 -0.346562
0.258179 -0.793103 -0.372579
0.276208 -0.805643 -0.398596
0.276208 -0.818182 -0.398596
0.294236 -0.830721 -0.424613
0.294236 -0.843260 -0.424613
0.312264 -0.855799 -0.450629
0.312264 -0.868339 -0.450629
0.330293 -0.880878 -0.476646
0.330293 -0.893417 -0.476646
0.348321 -0.905956 -0.502663
0.348321 -0.918495 -0.502663
0.366349 -0.931034 -0.528679
0.366349 -0.943574 -0.528679
0.384378 -0.956113 -0.554696
0.384378 -0.968652 -0.554696
0.402406 -0.981191 -0.580712
0.402406 -0.993730 -0.580712
0.402406 -1.006270 -0.580712
0.402406 -1.018809 -0.580712
0.420434 -1.031348 -0.606729
0.420434 -1.043887 -0.606729
0.420434 -1.056426 -0.606729
0.420434 -1.068965 -0.606729
0.420434 -1.081505 -0.606729
0.420434 -1.094044 -0.606729
0.420434 -1.106583 -0.606729
0.420434 -1.119122 -0.606729
0.420434 -1.131661 -0.606729
0.420434 -1.144201 -0.606729
0.438462 -1.156740 -0.632746
0.438462 -1.169279 -0.632746
0.420434 -1.181818 -0.606729
0.420434 -1.194357 -0.606729
0.420434 -1.206897 -0.606729
0.420434 -1.219436 -0.606729
0.420434 -1.231975 -0.606729
0.420434 -1.244514 -0.606729
0.420434 -1.257053 -0.606729
0.420434 -1.269593 -0.606729
0.420434 -1.282132 -0.606729
0.438462 -1.294671 -0.632746
0.438462 -1.307210 -0.632746
0.438462 -1.319749 -0.632746
0.438462 -1.332289 -0.632746
0.438462 -1.344828 -0.632746
0.438462 -1.357367 -0.632746
0.438462 -1.369906 -0.632746
0.438462 -1.382445 -0.632746
0.438462 -1.394984 -0.632746
0.438462 -1.407523 -0.632746
0.438462 -1.420063 -0.632746
0.438462 -1.432602 -0.632746
0.438462 -1.445141 -0.632746
0.438462 -1.457680 -0.632746
0.438462 -1.470219 -0.632746
0.438462 -1.482759 -0.632746
0.438462 -1.495298 -0.632746
0.438462 -1.501567 -0.632746
0.438462 -1.514107 -0.632746
0.438462 -1.526646 -0.632746
0.438462 -1.539185 -0.632746
0.438462 -1.551724 -0.632746
0.438462 -1.564263 -0.632746
0.438462 -1.576802 -0.632746
0.438462 -1.589342 -0.632746
0.438462 -1.601881 -0.632746
0.456491 -1.614420 -0.658762
0.618746 -1.626959 -0.892913
0.636774 -1.639498 -0.918929
0.636774 -1.652038 -0.918929
0.654802 -1.664577 -0.944946
0.636774 -1.677116 -0.918929
0.618746 -1.689655 -0.892913
0.582689 -1.702194 -0.840879
0.384378 -1.714734 -0.554696
0.348321 -1.727273 -0.502663
0.366349 -1.739812 -0.528679
0.366349 -1.752351 -0.528679
0.038775 -0.316614 -0.062391
0.055483 -0.329154 -0.089275
0.072190 -0.341693 -0.116159
0.072190 -0.354232 -0.116159
0.072190 -0.366771 -0.116159
0.088898 -0.379310 -0.143043
0.088898 -0.391850 -0.143043
0.088898 -0.404389 -0.143043
0.088898 -0.416928 -0.143043
0.072190 -0.429467 -0.116159
0.072190 -0.442006 -0.116159
0.072190 -0.454545 -0.116159
0.072190 -0.467085 -0.116159
0.072190 -0.479624 -0.116159
0.072190 -0.492163 -0.116159
0.072190 -0.504702 -0.116159
0.055483 -0.517241 -0.089275
0.055483 -0.529781 -0.089275
0.055483 -0.542320 -0.089275
0.055483 -0.554859 -0.089275
0.055483 -0.567398 -0.089275
0.055483 -0.579937 -0.089275
0.055483 -0.592476 -0.089275
0.055483 -0.605016 -0.089275
0.072190 -0.617555 -0.116159
0.072190 -0.630094 -0.116159
0.088898 -0.642633 -0.143043
0.088898 -0.655172 -0.143043
0.072190 -0.667712 -0.116159
0.105606 -0.680251 -0.169927
0.122314 -0.692790 -0.196811
0.122314 -0.705329 -0.196811
0.139021 -0.717868 -0.223694
0.189145 -0.730407 -0.304346
0.189145 -0.742947 -0.304346
0.205852 -0.755486 -0.331229
0.222560 -0.768025 -0.358113
0.222560 -0.780564 -0.358113
0.239268 -0.793103 -0.384997
0.239268 -0.805643 -0.384997
0.255976 -0.818182 -0.411881
0.272683 -0.830721 -0.438765
0.272683 -0.843260 -0.438765
0.289391 -0.855799 -0.465649
0.289391 -0.868339 -0.465649
0.306099 -0.880878 -0.492532
0.322807 -0.893417 -0.519416
0.322807 -0.905956 -0.519416
0.339514 -0.918495 -0.546300
0.339514 -0.931034 -0.546300
0.356222 -0.943574 -0.573184
0.356222 -0.956113 -0.573184
0.372930 -0.968652 -0.600067
0.372930 -0.981191 -0.600067
0.372930 -0.993730 -0.600067
0.389637 -1.006270 -0.626951
0.389637 -1.018809 -0.626951
0.389637 -1.031348 -0.626951
0.389637 -1.043887 -0.626951
0.389637 -1.056426 -0.626951
0.389637 -1.068965 -0.626951
0.389637 -1.081505 -0.626951
0.406345 -1.094044 -0.653835
0.406345 -1.106583 -0.653835
0.406345 -1.119122 -0.653835
0.406345 -1.131661 -0.653835
0.406345 -1.144201 -0.653835
0.406345 -1.156740 -0.653835
0.406345 -1.169279 -0.653835
0.406345 -1.181818 -0.653835
0.406345 -1.194357 -0.653835
0.406345 -1.206897 -0.653835
0.406345 -1.219436 -0.653835
0.406345 -1.231975 -0.653835
0.406345 -1.244514 -0.653835
0.406345 -1.257053 -0.653835
0.406345 -1.269593 -0.653835
0.406345 -1.282132 -0.653835
0.406345 -1.294671 -0.653835
0.406345 -1.307210 -0.653835
0.406345 -1.319749 -0.653835
0.406345 -1.332289 -0.653835
0.406345 -1.344828 -0.653835
0.406345 -1.357367 -0.653835
0.406345 -1.369906 -0.653835
0.406345 -1.382445 -0.653835
0.406345 -1.394984 -0.653835
0.406345 -1.407523 -0.653835
0.406345 -1.420063 -0.653835
0.406345 -1.432602 -0.653835
0.406345 -1.445141 -0.653835
0.406345 -1.457680 -0.653835
0.406345 -1.470219 -0.653835
0.406345 -1.482759 -0.653835
0.406345 -1.495298 -0.653835
0.423053 -1.501567 -0.680719
0.423053 -1.514107 -0.680719
0.423053 -1.526646 -0.680719
0.423053 -1.539185 -0.680719
0.423053 -1.551724 -0.680719
0.423053 -1.564263 -0.680719
0.423053 -1.576802 -0.680719
0.423053 -1.589342 -0.680719
0.423053 -1.601881 -0.680719
0.423053 -1.614420 -0.680719
0.456468 -1.626959 -0.734486
0.590130 -1.639498 -0.949557
0.606838 -1.652038 -0.976441
0.606838 -1.664577 -0.976441
0.606838 -1.677116 -0.976441
0.606838 -1.689655 -0.976441
0.590130 -1.702194 -0.949557
0.556715 -1.714734 -0.895789
0.339514 -1.727273 -0.546300
0.339514 -1.739812 -0.546300
0.339514 -1.752351 -0.546300
0.035614 -0.316614 -0.064248
0.050959 -0.329154 -0.091932
0.066305 -0.341693 -0.119616
0.066305 -0.354232 -0.119616
0.066305 -0.366771 -0.119616
0.066305 -0.379310 -0.119616
0.081650 -0.391850 -0.147300
0.081650 -0.404389 -0.147300
0.081650 -0.416928 -0.147300
0.066305 -0.429467 -0.119616
0.066305 -0.442006 -0.119616
0.066305 -0.454545 -0.119616
0.066305 -0.467085 -0.119616
0.050959 -0.479624 -0.091932
0.066305 -0.492163 -0.119616
0.050959 -0.504702 -0.091932
0.050959 -0.517241 -0.091932
0.050959 -0.529781 -0.091932
0.066305 -0.542320 -0.119616
0.066305 -0.554859 -0.119616
0.050959 -0.567398 -0.091932
0.050959 -0.579937 -0.091932
0.050959 -0.592476 -0.091932
0.050959 -0.605016 -0.091932
0.050959 -0.617555 -0.091932
0.066305 -0.630094 -0.119616
0.081650 -0.642633 -0.147300
0.081650 -0.655172 -0.147300
0.081650 -0.667712 -0.147300
0.096996 -0.680251 -0.174984
0.112341 -0.692790 -0.202668
0.127687 -0.705329 -0.230352
0.143032 -0.717868 -0.258036
0.158378 -0.730407 -0.285720
0.189069 -0.742947 -0.341088
0.204414 -0.755486 -0.368772
0.204414 -0.768025 -0.368772
0.219760 -0.780564 -0.396456
0.219760 -0.793103 -0.396456
0.235106 -0.805643 -0.424140
0.235106 -0.818182 -0.424140
0.250451 -0.830721 -0.451824
0.265797 -0.843260 -0.479508
0.265797 -0.855799 -0.479508
0.281142 -0.868339 -0.507192
0.296488 -0.880878 -0.534876
0.296488 -0.893417 -0.534876
0.311833 -0.905956 -0.562560
0.311833 -0.918495 -0.562560
0.327179 -0.931034 -0.590244
0.327179 -0.943574 -0.590244
0.342524 -0.956113 -0.617928
0.342524 -0.968652 -0.617928
0.357870 -0.981191 -0.645612
0.357870 -0.993730 -0.645612
0.357870 -1.006270 -0.645612
0.373215 -1.018809 -0.673295
0.373215 -1.031348 -0.673295
0.373215 -1.043887 -0.673295
0.373215 -1.056426 -0.673295
0.373215 -1.068965 -0.673295
0.373215 -1.081505 -0.673295
0.373215 -1.094044 -0.673295
0.373215 -1.106583 -0.673295
0.388561 -1.119122 -0.700980
0.388561 -1.131661 -0.700980
0.388561 -1.144201 -0.700980
0.388561 -1.156740 -0.700980
0.388561 -1.169279 -0.700980
0.388561 -1.181818 -0.700980
0.388561 -1.194357 -0.700980
0.388561 -1.206897 -0.700980
0.388561 -1.219436 -0.700980
0.388561 -1.231975 -0.700980
0.388561 -1.244514 -0.700980
0.388561 -1.257053 -0.700980
0.388561 -1.269593 -0.700980
0.388561 -1.282132 -0.700980
0.388561 -1.294671 -0.700980
0.388561 -1.307210 -0.700980
0.388561 -1.319749 -0.700980
0.388561 -1.332289 -0.700980
0.388561 -1.344828 -0.700980
0.403906 -1.357367 -0.728664
0.403906 -1.369906 -0.728664
0.403906 -1.382445 -0.728664
0.403906 -1.394984 -0.728664
0.403906 -1.407523 -0.728664
0.388561 -1.420063 -0.700980
0.388561 -1.432602 -0.700980
0.388561 -1.445141 -0.700980
0.388561 -1.457680 -0.700980
0.403906 -1.470219 -0.728664
0.403906 -1.482759 -0.728664
0.403906 -1.495298 -0.728664
0.403906 -1.501567 -0.728664
0.403906 -1.514107 -0.728664
0.403906 -1.526646 -0.728664
0.403906 -1.539185 -0.728664
0.403906 -1.551724 -0.728664
0.403906 -1.564263 -0.728664
0.403906 -1.576802 -0.728664
0.403906 -1.589342 -0.728664
0.403906 -1.601881 -0.728664
0.403906 -1.614420 -0.728664
0.403906 -1.626959 -0.728664
0.434597 -1.639498 -0.784032
0.588053 -1.652038 -1.060871
0.588053 -1.664577 -1.060871
0.588053 -1.677116 -1.060871
0.572707 -1.689655 -1.033187
0.572707 -1.702194 -1.033187
0.542016 -1.714734 -0.977819
0.511325 -1.727273 -0.922451
0.342524 -1.739812 -0.617928
0.327179 -1.752351 -0.590244
0.327179 -1.764890 -0.590244
0.032364 -0.316614 -0.065945
0.046309 -0.329154 -0.094361
0.046309 -0.341693 -0.094361
0.060254 -0.354232 -0.122776
0.060254 -0.366771 -0.122776
0.060254 -0.379310 -0.122776
0.074199 -0.391850 -0.151191
0.074199 -0.404389 -0.151191
0.060254 -0.416928 -0.122776
0.060254 -0.429467 -0.122776
0.060254 -0.442006 -0.122776
0.074199 -0.454545 -0.151191
0.074199 -0.467085 -0.151191
0.060254 -0.479624 -0.122776
0.060254 -0.492163 -0.122776
0.046309 -0.504702 -0.094361
0.046309 -0.517241 -0.094361
0.032364 -0.529781 -0.065945
0.046309 -0.542320 -0.094361
0.046309 -0.554859 -0.094361
0.046309 -0.567398 -0.094361
0.046309 -0.579937 -0.094361
0.046309 -0.592476 -0.094361
0.046309 -0.605016 -0.094361
0.060254 -0.617555 -0.122776
0.074199 -0.630094 -0.151191
0.060254 -0.642633 -0.122776
0.060254 -0.655172 -0.122776
0.060254 -0.667712 -0.122776
0.088144 -0.680251 -0.179606
0.116034 -0.692790 -0.236436
0.116034 -0.705329 -0.236436
0.129979 -0.717868 -0.264852
0.143924 -0.730407 -0.293267
0.171815 -0.742947 -0.350097
0.185760 -0.755486 -0.378512
0.185760 -0.768025 -0.378512
0.199705 -0.780564 -0.406927
0.213650 -0.793103 -0.435342
0.213650 -0.805643 -0.435342
0.227595 -0.818182 -0.463758
0.227595 -0.830721 -0.463758
0.241540 -0.843260 -0.492173
0.255485 -0.855799 -0.520588
0.255485 -0.868339 -0.520588
0.269430 -0.880878 -0.549003
0.283376 -0.893417 -0.577418
0.283376 -0.905956 -0.577418
0.297321 -0.918495 -0.605833
0.297321 -0.931034 -0.605833
0.311266 -0.943574 -0.634248
0.325211 -0.956113 -0.662664
0.325211 -0.968652 -0.662664
0.339156 -0.981191 -0.691079
0.339156 -0.993730 -0.691079
0.339156 -1.006270 -0.691079
0.353101 -1.018809 -0.719494
0.353101 -1.031348 -0.719494
0.353101 -1.043887 -0.719494
0.353101 -1.056426 -0.719494
0.353101 -1.068965 -0.719494
0.353101 -1.081505 -0.719494
0.353101 -1.094044 -0.719494
0.353101 -1.106583 -0.719494
0.367046 -1.119122 -0.747909
0.367046 -1.131661 -0.747909
0.367046 -1.144201 -0.747909
0.367046 -1.156740 -0.747909
0.367046 -1.169279 -0.747909
0.367046 -1.181818 -0.747909
0.367046 -1.194357 -0.747909
0.367046 -1.206897 -0.747909
0.367046 -1.219436 -0.747909
0.367046 -1.231975 -0.747909
0.367046 -1.244514 -0.747909
0.367046 -1.257053 -0.747909
0.367046 -1.269593 -0.747909
0.367046 -1.282132 -0.747909
0.367046 -1.294671 -0.747909
0.367046 -1.307210 -0.747909
0.367046 -1.319749 -0.747909
0.367046 -1.332289 -0.747909
0.367046 -1.344828 -0.747909
0.367046 -1.357367 -0.747909
0.367046 -1.369906 -0.747909
0.367046 -1.382445 -0.747909
0.380991 -1.394984 -0.776324
0.380991 -1.407523 -0.776324
0.380991 -1.420063 -0.776324
0.380991 -1.432602 -0.776324
0.380991 -1.445141 -0.776324
0.380991 -1.457680 -0.776324
0.380991 -1.470219 -0.776324
0.380991 -1.482759 -0.776324
0.380991 -1.495298 -0.776324
0.380991 -1.501567 -0.776324
0.380991 -1.514107 -0.776324
0.380991 -1.526646 -0.776324
0.380991 -1.539185 -0.776324
0.380991 -1.551724 -0.776324
0.380991 -1.564263 -0.776324
0.380991 -1.576802 -0.776324
0.380991 -1.589342 -0.776324
0.380991 -1.601881 -0.776324
0.380991 -1.614420 -0.776324
0.380991 -1.626959 -0.776324
0.408881 -1.639498 -0.833154
0.506497 -1.652038 -1.032061
0.534387 -1.664577 -1.088891
0.534387 -1.677116 -1.088891
0.534387 -1.689655 -1.088891
0.534387 -1.702194 -1.088891
0.520442 -1.714734 -1.060476
0.492552 -1.727273 -1.003645
0.464662 -1.739812 -0.946815
0.311266 -1.752351 -0.634248
0.311266 -1.764890 -0.634248
0.311266 -1.777430 -0.634248
0.029033 -0.316614 -0.067478
0.041543 -0.329154 -0.096554
0.041543 -0.341693 -0.096554
0.054053 -0.354232 -0.125629
0.054053 -0.366771 -0.125629
0.054053 -0.379310 -0.125629
0.066563 -0.391850 -0.154705
0.066563 -0.404389 -0.154705
0.066563 -0.416928 -0.154705
0.066563 -0.429467 -0.154705
0.066563 -0.442006 -0.154705
0.066563 -0.454545 -0.154705
0.066563 -0.467085 -0.154705
0.054053 -0.479624 -0.125629
0.054053 -0.492163 -0.125629
0.041543 -0.504702 -0.096554
0.041543 -0.517241 -0.096554
0.041543 -0.529781 -0.096554
0.041543 -0.542320 -0.096554
0.041543 -0.554859 -0.096554
0.041543 -0.567398 -0.096554
0.041543 -0.579937 -0.096554
0.041543 -0.592476 -0.096554
0.041543 -0.605016 -0.096554
0.054053 -0.617555 -0.125629
0.054053 -0.630094 -0.125629
0.054053 -0.642633 -0.125629
0.054053 -0.655172 -0.125629
0.066563 -0.667712 -0.154705
0.079073 -0.680251 -0.183780
0.104093 -0.692790 -0.241931
0.104093 -0.705329 -0.241931
0.116603 -0.717868 -0.271007
0.141623 -0.730407 -0.329158
0.154133 -0.742947 -0.358233
0.166643 -0.755486 -0.387309
0.179153 -0.768025 -0.416384
0.179153 -0.780564 -0.416384
0.191663 -0.793103 -0.445460
0.204173 -0.805643 -0.474536
0.204173 -0.818182 -0.474536
0.216683 -0.830721 -0.503611
0.229193 -0.843260 -0.532687
0.229193 -0.855799 -0.532687
0.241703 -0.868339 -0.561762
0.254213 -0.880878 -0.590838
0.254213 -0.893417 -0.590838
0.266723 -0.905956 -0.619913
0.266723 -0.918495 -0.619913
0.279233 -0.931034 -0.648989
0.291743 -0.943574 -0.678064
0.291743 -0.956113 -0.678064
0.304253 -0.968652 -0.707140
0.304253 -0.981191 -0.707140
0.316763 -0.993730 -0.736215
0.316763 -1.006270 -0.736215
0.316763 -1.018809 -0.736215
0.329273 -1.031348 -0.765291
0.329273 -1.043887 -0.765291
0.329273 -1.056426 -0.765291
0.329273 -1.068965 -0.765291
0.329273 -1.081505 -0.765291
0.329273 -1.094044 -0.765291
0.329273 -1.106583 -0.765291
0.329273 -1.119122 -0.765291
0.341783 -1.131661 -0.794366
0.341783 -1.144201 -0.794366
0.341783 -1.156740 -0.794366
0.341783 -1.169279 -0.794366
0.341783 -1.181818 -0.794366
0.341783 -1.194357 -0.794366
0.341783 -1.206897 -0.794366
0.341783 -1.219436 -0.794366
0.341783 -1.231975 -0.794366
0.341783 -1.244514 -0.794366
0.341783 -1.257053 -0.794366
0.354293 -1.269593 -0.823442
0.354293 -1.282132 -0.823442
0.341783 -1.294671 -0.794366
0.341783 -1.307210 -0.794366
0.341783 -1.319749 -0.794366
0.341783 -1.332289 -0.794366
0.341783 -1.344828 -0.794366
0.341783 -1.357367 -0.794366
0.354293 -1.369906 -0.823442
0.354293 -1.382445 -0.823442
0.354293 -1.394984 -0.823442
0.354293 -1.407523 -0.823442
0.341783 -1.420063 -0.794366
0.341783 -1.432602 -0.794366
0.354293 -1.445141 -0.823442
0.354293 -1.457680 -0.823442
0.354293 -1.470219 -0.823442
0.354293 -1.482759 -0.823442
0.354293 -1.495298 -0.823442
0.354293 -1.501567 -0.823442
0.354293 -1.514107 -0.823442
0.354293 -1.526646 -0.823442
0.354293 -1.539185 -0.823442
0.354293 -1.551724 -0.823442
0.354293 -1.564263 -0.823442
0.354293 -1.576802 -0.823442
0.354293 -1.589342 -0.823442
0.354293 -1.601881 -0.823442
0.354293 -1.614420 -0.823442
0.354293 -1.626959 -0.823442
0.379313 -1.639498 -0.881593
0.466883 -1.652038 -1.085122
0.491903 -1.664577 -1.143273
0.491903 -1.677116 -1.143273
0.491903 -1.689655 -1.143273
0.479393 -1.702194 -1.114197
0.466883 -1.714734 -1.085122
0.454373 -1.727273 -1.056046
0.429353 -1.739812 -0.997895
0.429353 -1.752351 -0.997895
0.291743 -1.764890 -0.678064
0.291743 -1.777430 -0.678064
0.291743 -1.789969 -0.678064
0.025630 -0.316614 -0.068843
0.036674 -0.329154 -0.098506
0.036674 -0.341693 -0.098506
0.047717 -0.354232 -0.128170
0.047717 -0.366771 -0.128170
0.047717 -0.379310 -0.128170
0.058761 -0.391850 -0.157833
0.058761 -0.404389 -0.157833
0.058761 -0.416928 -0.157833
0.058761 -0.429467 -0.157833
0.058761 -0.442006 -0.157833
0.058761 -0.454545 -0.157833
0.058761 -0.467085 -0.157833
0.047717 -0.479624 -0.128170
0.047717 -0.492163 -0.128170
0.036674 -0.504702 -0.098506
0.036674 -0.517241 -0.098506
0.036674 -0.529781 -0.098506
0.036674 -0.542320 -0.098506
0.036674 -0.554859 -0.098506
0.036674 -0.567398 -0.098506
0.036674 -0.579937 -0.098506
0.036674 -0.592476 -0.098506
0.036674 -0.605016 -0.098506
0.047717 -0.617555 -0.128170
0.047717 -0.630094 -0.128170
0.058761 -0.642633 -0.157833
0.047717 -0.655172 -0.128170
0.058761 -0.667712 -0.157833
0.080848 -0.680251 -0.217160
0.091892 -0.692790 -0.246824
0.091892 -0.705329 -0.246824
0.102936 -0.717868 -0.276487
0.113979 -0.730407 -0.306151
0.136067 -0.742947 -0.365478
0.147110 -0.755486 -0.395141
0.158154 -0.768025 -0.424805
0.158154 -0.780564 -0.424805
0.169198 -0.793103 -0.454468
0.180241 -0.805643 -0.484132
0.180241 -0.818182 -0.484132
0.191285 -0.830721 -0.513795
