0.209004 -2.954014 -0.787055
0.209021 -2.973546 -0.787118
0.209037 -2.993077 -0.787177
0.220343 -3.012634 -0.829754
0.220358 -3.032162 -0.829809
0.220372 -3.051689 -0.829862
0.231676 -3.071238 -0.872433
0.231689 -3.090763 -0.872480
0.231701 -3.110287 -0.872525
0.254295 -3.129849 -0.957608
0.276888 -3.149407 -1.042686
0.276898 -3.168924 -1.042724
0.276907 -3.188441 -1.042758
0.276915 -3.207958 -1.042789
0.276922 -3.227475 -1.042817
0.276929 -3.246992 -1.042843
0.276935 -3.266509 -1.042864
0.276940 -3.286027 -1.042882
0.276944 -3.305545 -1.042898
0.276947 -3.325063 -1.042909
0.276949 -3.344583 -1.042918
0.265658 -3.364102 -1.000398
0.265658 -3.383626 -1.000398
0.265657 -3.403151 -1.000395
0.265655 -3.422676 -1.000387
0.265652 -3.442203 -1.000375
0.265648 -3.461731 -1.000360
0.265643 -3.481262 -1.000341
0.265636 -3.500794 -1.000317
0.254334 -3.520342 -0.957756
-0.023157 -2.170324 0.110232
-0.005063 -2.190009 0.024099
0.013032 -2.209696 -0.062036
0.022089 -2.229342 -0.105147
0.022107 -2.248945 -0.105233
0.022125 -2.268548 -0.105320
0.049262 -2.288273 -0.234494
0.067360 -2.307958 -0.320646
0.067379 -2.327555 -0.320736
0.067398 -2.347150 -0.320827
0.067418 -2.366744 -0.320919
0.067437 -2.386335 -0.321011
0.067456 -2.405924 -0.321102
0.067475 -2.425510 -0.321194
0.067495 -2.445095 -0.321286
0.058473 -2.464635 -0.278341
0.058492 -2.484216 -0.278431
0.058511 -2.503795 -0.278521
0.058530 -2.523372 -0.278611
0.131105 -2.778013 -0.624080
0.122078 -2.797524 -0.581111
0.140181 -2.817144 -0.667286
0.140197 -2.836688 -0.667363
0.131169 -2.856196 -0.624387
0.131184 -2.875738 -0.624460
0.149287 -2.895345 -0.710632
0.140258 -2.914850 -0.667649
0.140272 -2.934387 -0.667716
0.140285 -2.953924 -0.667779
0.140298 -2.973459 -0.667841
0.149355 -2.993021 -0.710954
0.158412 -3.012580 -0.754066
0.158423 -3.032110 -0.754121
0.167479 -3.051664 -0.797228
0.176534 -3.071215 -0.840333
0.185589 -3.090763 -0.883435
0.203688 -3.110329 -0.969588
0.203697 -3.129849 -0.969632
0.203706 -3.149370 -0.969672
0.203713 -3.168890 -0.969710
0.203721 -3.188410 -0.969744
0.203727 -3.207930 -0.969775
0.203733 -3.227449 -0.969803
0.203738 -3.246970 -0.969827
0.203743 -3.266490 -0.969848
0.203746 -3.286011 -0.969865
0.203749 -3.305532 -0.969880
0.203751 -3.325055 -0.969890
0.203753 -3.344578 -0.969897
0.203753 -3.364102 -0.969900
0.203753 -3.383627 -0.969899
0.203752 -3.403153 -0.969894
0.203750 -3.422680 -0.969886
0.203748 -3.442209 -0.969873
0.203744 -3.461740 -0.969856
0.203740 -3.481272 -0.969836
0.194687 -3.500819 -0.926742
0.194681 -3.520358 -0.926711
0.194673 -3.539897 -0.926677
-0.018026 -2.170324 0.111186
-0.010977 -2.189970 0.067706
0.010145 -2.209696 -0.062573
0.010159 -2.229301 -0.062659
0.017209 -2.248945 -0.106144
0.017223 -2.268548 -0.106232
0.031310 -2.288231 -0.193122
0.045398 -2.307915 -0.280018
0.045413 -2.327512 -0.280109
0.045428 -2.347107 -0.280200
0.045443 -2.366700 -0.280292
0.045458 -2.386291 -0.280384
0.045472 -2.405880 -0.280475
0.045487 -2.425467 -0.280567
0.045502 -2.445052 -0.280659
0.045517 -2.464635 -0.280751
0.045532 -2.484216 -0.280842
0.038509 -2.503753 -0.237522
0.102069 -2.797561 -0.629563
0.102081 -2.817108 -0.629642
0.095054 -2.836617 -0.586295
0.095066 -2.856161 -0.586370
0.095077 -2.875704 -0.586442
0.130290 -2.895412 -0.803632
0.123261 -2.914915 -0.760279
0.116232 -2.934418 -0.716922
0.116242 -2.953954 -0.716987
0.116252 -2.973487 -0.717049
0.116262 -2.993021 -0.717109
0.123312 -3.012580 -0.760594
0.123321 -3.032110 -0.760650
0.123330 -3.051640 -0.760702
0.144460 -3.071238 -0.891035
0.151509 -3.090785 -0.934510
0.151516 -3.110308 -0.934557
0.151523 -3.129829 -0.934600
0.151530 -3.149351 -0.934640
0.151536 -3.168873 -0.934677
0.151541 -3.188394 -0.934712
0.151546 -3.207916 -0.934743
0.151551 -3.227437 -0.934770
0.151554 -3.246959 -0.934794
0.151558 -3.266481 -0.934814
0.151561 -3.286004 -0.934831
0.151563 -3.305527 -0.934844
0.151564 -3.325051 -0.934854
0.151565 -3.344576 -0.934860
0.151566 -3.364101 -0.934862
0.151565 -3.383628 -0.934860
0.151564 -3.403157 -0.934854
0.151563 -3.422686 -0.934845
0.151561 -3.442217 -0.934831
0.151558 -3.461749 -0.934813
0.144511 -3.481295 -0.891347
0.144506 -3.500833 -0.891320
0.144501 -3.520373 -0.891288
-0.231269 -1.954800 -0.057039
-0.231339 -1.974431 -0.057056
-0.231412 -1.994059 -0.057074
-0.231485 -2.013686 -0.057092
-0.274246 -2.033348 -0.067639
-0.361716 -2.503881 -0.089212
-0.361807 -2.523458 -0.089234
-0.361897 -2.543033 -0.089256
-0.361986 -2.562606 -0.089278
-0.362074 -2.582176 -0.089300
-0.362162 -2.601745 -0.089321
-0.362248 -2.621313 -0.089343
-0.362334 -2.640878 -0.089364
-0.362418 -2.660442 -0.089385
-0.362502 -2.680004 -0.089405
-0.405289 -2.699603 -0.099958
0.705736 -3.012158 0.174059
0.705759 -3.031743 0.174064
0.748642 -3.051342 0.184641
0.748676 -3.070929 0.184649
0.748714 -3.090517 0.184659
0.748757 -3.110106 0.184669
0.748803 -3.129696 0.184681
0.620252 -3.149220 0.152975
-0.235664 -3.168671 -0.058123
-0.278426 -3.188224 -0.068669
-0.363930 -3.207780 -0.089758
-0.363940 -3.227324 -0.089760
-0.406693 -3.246871 -0.100304
-0.406697 -3.266415 -0.100305
-0.363946 -3.285961 -0.089762
-0.363940 -3.305508 -0.089760
-0.363930 -3.325057 -0.089758
-0.363915 -3.344606 -0.089754
-0.363896 -3.364158 -0.089749
-0.363873 -3.383710 -0.089744
-0.363846 -3.403264 -0.089737
-0.406581 -3.422804 -0.100277
-0.449310 -3.442343 -0.110815
-0.066315 -1.993430 0.593294
-0.066308 -2.013047 0.593230
-0.007628 -2.170362 0.068248
-0.002735 -2.190009 0.024472
0.007041 -2.209696 -0.062998
0.007051 -2.229301 -0.063084
0.011945 -2.248945 -0.106865
0.016838 -2.268589 -0.150648
0.016848 -2.288189 -0.150737
0.031511 -2.307915 -0.281918
0.031521 -2.327512 -0.282010
0.031532 -2.347107 -0.282102
0.031542 -2.366700 -0.282194
0.031552 -2.386291 -0.282287
0.031563 -2.405880 -0.282379
0.031573 -2.425467 -0.282472
0.031583 -2.445052 -0.282564
0.026709 -2.464592 -0.238953
0.031604 -2.484216 -0.282748
0.026729 -2.503753 -0.239134
0.026739 -2.523330 -0.239225
0.075742 -2.817144 -0.677632
0.070864 -2.836652 -0.633993
0.065986 -2.856161 -0.590350
0.070881 -2.875738 -0.634141
0.080662 -2.895345 -0.721650
0.080670 -2.914882 -0.721720
0.075790 -2.934387 -0.678068
0.075798 -2.953924 -0.678132
0.080692 -2.973487 -0.721916
0.090472 -2.993077 -0.809419
0.090479 -3.012607 -0.809478
0.090485 -3.032135 -0.809534
0.095378 -3.051689 -0.853310
0.100271 -3.071238 -0.897083
0.100276 -3.090763 -0.897132
0.100281 -3.110287 -0.897178
0.100286 -3.129810 -0.897221
0.100291 -3.149333 -0.897261
0.100295 -3.168856 -0.897298
0.100298 -3.188379 -0.897332
0.100302 -3.207902 -0.897363
0.100305 -3.227425 -0.897389
0.100307 -3.246949 -0.897413
0.100310 -3.266473 -0.897432
0.100312 -3.285997 -0.897449
0.100313 -3.305521 -0.897461
0.100314 -3.325047 -0.897470
0.100314 -3.344574 -0.897475
0.100314 -3.364102 -0.897476
0.100314 -3.383630 -0.897473
0.100313 -3.403161 -0.897466
0.095423 -3.422698 -0.853718
0.095422 -3.442233 -0.853701
0.095419 -3.461770 -0.853681
0.095417 -3.481308 -0.853656
0.090524 -3.500863 -0.809881
0.095410 -3.520390 -0.853593
0.100295 -3.539915 -0.897302
-0.006967 -2.170324 0.112422
-0.004243 -2.189970 0.068459
0.001202 -2.209655 -0.019387
0.003926 -2.229301 -0.063355
0.006651 -2.248945 -0.107324
0.014816 -2.268672 -0.239063
0.014821 -2.288273 -0.239154
0.014827 -2.307873 -0.239245
0.017552 -2.327512 -0.283223
0.017558 -2.347107 -0.283315
0.017564 -2.366700 -0.283408
0.017570 -2.386291 -0.283501
0.014855 -2.405837 -0.239704
0.014861 -2.425424 -0.239797
0.014867 -2.445009 -0.239889
0.014872 -2.464592 -0.239980
0.014878 -2.484173 -0.240072
0.014884 -2.503753 -0.240163
0.014889 -2.523330 -0.240253
0.047657 -2.993049 -0.768991
0.050382 -3.012607 -0.812959
0.050386 -3.032135 -0.813016
0.053110 -3.051689 -0.856980
0.053113 -3.071215 -0.857031
0.053116 -3.090741 -0.857081
0.053119 -3.110266 -0.857126
0.053122 -3.129791 -0.857169
0.053124 -3.149315 -0.857208
0.053127 -3.168840 -0.857245
0.053129 -3.188364 -0.857278
0.053131 -3.207889 -0.857307
0.053132 -3.227414 -0.857333
0.053134 -3.246939 -0.857356
0.053135 -3.266464 -0.857375
0.053136 -3.285990 -0.857390
0.053136 -3.305517 -0.857402
0.053137 -3.325045 -0.857410
0.053137 -3.344573 -0.857414
0.053137 -3.364102 -0.857413
0.053137 -3.383633 -0.857409
0.053136 -3.403164 -0.857401
0.053136 -3.422698 -0.857389
0.053135 -3.442233 -0.857372
0.053133 -3.461770 -0.857352
0.050409 -3.481320 -0.813394
0.050407 -3.500863 -0.813364
0.053128 -3.520390 -0.857264
-0.000857 -2.170362 0.068667
-0.000307 -2.190009 0.024623
0.001339 -2.209736 -0.107347
0.001341 -2.229342 -0.107434
0.001342 -2.248945 -0.107522
0.002989 -2.268672 -0.239503
0.002990 -2.288273 -0.239594
0.003539 -2.307915 -0.283652
0.003541 -2.327512 -0.283744
0.002993 -2.347064 -0.239869
0.002994 -2.366657 -0.239961
0.002995 -2.386248 -0.240053
0.002997 -2.405837 -0.240146
0.003546 -2.425467 -0.284208
0.002999 -2.445009 -0.240330
0.003000 -2.464592 -0.240422
0.003001 -2.484173 -0.240514
0.003002 -2.503753 -0.240605
0.003003 -2.523330 -0.240696
0.010162 -2.993077 -0.814396
0.009614 -3.012580 -0.770466
0.010164 -3.032135 -0.814512
0.010164 -3.051664 -0.814567
0.010714 -3.071215 -0.858609
0.010715 -3.090741 -0.858658
0.010715 -3.110266 -0.858704
0.010167 -3.129772 -0.814754
0.010167 -3.149298 -0.814792
0.010168 -3.168824 -0.814828
0.010168 -3.188350 -0.814860
0.010168 -3.207876 -0.814889
0.010169 -3.227403 -0.814914
0.010169 -3.246929 -0.814936
0.010169 -3.266457 -0.814954
0.010169 -3.285985 -0.814969
0.010169 -3.305513 -0.814979
0.010170 -3.325042 -0.814985
0.010170 -3.344573 -0.814988
0.010170 -3.364104 -0.814987
0.010170 -3.383636 -0.814981
0.010169 -3.403170 -0.814972
0.010169 -3.422705 -0.814959
0.010169 -3.442242 -0.814940
0.010169 -3.461780 -0.814918
0.009619 -3.481334 -0.770875
0.009619 -3.500878 -0.770842
0.010168 -3.520406 -0.814825
0.004160 -2.170324 0.112561
0.004157 -2.189932 0.112479
0.000906 -2.209616 0.024524
-0.000721 -2.229261 -0.019498
-0.007219 -2.249028 -0.195331
-0.008846 -2.268672 -0.239359
-0.008849 -2.288273 -0.239449
-0.008853 -2.307873 -0.239540
-0.008856 -2.327469 -0.239632
-0.008859 -2.347064 -0.239724
-0.008863 -2.366657 -0.239816
-0.008866 -2.386248 -0.239908
-0.008870 -2.405837 -0.240000
-0.008873 -2.425424 -0.240093
-0.008876 -2.445009 -0.240185
-0.008880 -2.464592 -0.240277
-0.008883 -2.484173 -0.240368
-0.007262 -2.503710 -0.196512
-0.007266 -2.523288 -0.196601
-0.028455 -2.993049 -0.769941
-0.028457 -3.012580 -0.770000
-0.028459 -3.032110 -0.770056
-0.028461 -3.051640 -0.770109
-0.028463 -3.071168 -0.770159
-0.028464 -3.090697 -0.770207
-0.028466 -3.110225 -0.770252
-0.028468 -3.129753 -0.770293
-0.028469 -3.149281 -0.770331
-0.028470 -3.168808 -0.770366
-0.028471 -3.188336 -0.770397
-0.028472 -3.207863 -0.770425
-0.028473 -3.227392 -0.770449
-0.028474 -3.246920 -0.770469
-0.028475 -3.266449 -0.770486
-0.028475 -3.285979 -0.770500
-0.028476 -3.305509 -0.770509
-0.028476 -3.325040 -0.770514
-0.028476 -3.344573 -0.770516
-0.028476 -3.364106 -0.770513
-0.028475 -3.383640 -0.770506
-0.028475 -3.403176 -0.770495
-0.028474 -3.422713 -0.770480
-0.028474 -3.442252 -0.770461
-0.026847 -3.461804 -0.726445
-0.026846 -3.481349 -0.726416
-0.026845 -3.500895 -0.726381
0.013507 -2.170287 0.156020
0.021085 -2.189819 0.243550
0.009701 -2.209538 0.112054
0.005901 -2.229182 0.068168
0.002102 -2.248824 0.024279
-0.016867 -2.268631 -0.194825
-0.020667 -2.288273 -0.238720
-0.020675 -2.307873 -0.238811
-0.020682 -2.327469 -0.238902
-0.020690 -2.347064 -0.238993
-0.020698 -2.366657 -0.239085
-0.020706 -2.386248 -0.239177
-0.020714 -2.405837 -0.239269
-0.020722 -2.425424 -0.239361
-0.020730 -2.445009 -0.239453
-0.020738 -2.464592 -0.239545
-0.016953 -2.484131 -0.195823
-0.016961 -2.503710 -0.195913
-0.016968 -2.523288 -0.196002
-0.016976 -2.542864 -0.196091
-0.020777 -2.562480 -0.239995
-0.016991 -2.582011 -0.196266
-0.016999 -2.601582 -0.196352
-0.017006 -2.621151 -0.196436
-0.066490 -3.500878 -0.768030
-0.070284 -3.520406 -0.811852
0.015935 -2.170324 0.111505
0.028364 -2.189856 0.198474
0.015912 -2.209538 0.111342
-0.002760 -2.229261 -0.019315
-0.008992 -2.248905 -0.062924
-0.027665 -2.268631 -0.193587
-0.033898 -2.288273 -0.237202
-0.033911 -2.307873 -0.237293
-0.033924 -2.327469 -0.237384
-0.033937 -2.347064 -0.237475
-0.033950 -2.366657 -0.237566
-0.033963 -2.386248 -0.237657
-0.033976 -2.405837 -0.237749
-0.033990 -2.425424 -0.237840
-0.034003 -2.445009 -0.237932
-0.027794 -2.464550 -0.194489
-0.027807 -2.484131 -0.194579
-0.027820 -2.503710 -0.194668
-0.027833 -2.523288 -0.194757
-0.090380 -3.481380 -0.632428
0.028836 -2.170287 0.153926
0.036917 -2.189856 0.197063
0.020710 -2.209538 0.110550
-0.003593 -2.229261 -0.019177
-0.011704 -2.248905 -0.062477
-0.036008 -2.268631 -0.192210
-0.044121 -2.288273 -0.235515
-0.044138 -2.307873 -0.235605
-0.036058 -2.327427 -0.192477
-0.036075 -2.347021 -0.192567
-0.036092 -2.366614 -0.192657
-0.036109 -2.386205 -0.192747
-0.036126 -2.405794 -0.192837
-0.036142 -2.425381 -0.192926
-0.036159 -2.444966 -0.193016
-0.036176 -2.464550 -0.193106
-0.036193 -2.484131 -0.193195
-0.036209 -2.503710 -0.193283
-0.036226 -2.523288 -0.193372
0.046625 -2.170249 0.195076
0.046606 -2.189856 0.194998
0.026146 -2.209538 0.109392
-0.004536 -2.229261 -0.018976
-0.014776 -2.248905 -0.061822
-0.025017 -2.268548 -0.104670
-0.045480 -2.288231 -0.190284
-0.045501 -2.307830 -0.190373
-0.045522 -2.327427 -0.190461
-0.045543 -2.347021 -0.190550
-0.045564 -2.366614 -0.190639
-0.045586 -2.386205 -0.190728
-0.045607 -2.405794 -0.190817
-0.045628 -2.425381 -0.190906
-0.045649 -2.444966 -0.190995
-0.045671 -2.464550 -0.191083
-0.045692 -2.484131 -0.191171
-0.035489 -2.503669 -0.148486
0.043884 -2.170287 0.150330
0.031541 -2.189932 0.108046
0.031517 -2.209538 0.107967
0.019174 -2.229182 0.065681
-0.017812 -2.248905 -0.061017
-0.017836 -2.268506 -0.061101
-0.017861 -2.288106 -0.061186
-0.054849 -2.307830 -0.187893
-0.054875 -2.327427 -0.187980
-0.054900 -2.347021 -0.188067
-0.054926 -2.366614 -0.188155
-0.054951 -2.386205 -0.188243
-0.054977 -2.405794 -0.188332
-0.055003 -2.425381 -0.188419
-0.055028 -2.444966 -0.188507
-0.042731 -2.464507 -0.146380
-0.055079 -2.484131 -0.188681
-0.042781 -2.503669 -0.146551
0.108846 -2.150532 0.314243
0.065646 -2.170249 0.189524
0.051230 -2.189894 0.147902
0.036812 -2.209538 0.106279
0.022395 -2.229182 0.064654
-0.006414 -2.248864 -0.018518
-0.020833 -2.268506 -0.060146
-0.020862 -2.288106 -0.060229
-0.049672 -2.307788 -0.143407
-0.064093 -2.327427 -0.185040
-0.064123 -2.347021 -0.185126
-0.064153 -2.366614 -0.185212
-0.064183 -2.386205 -0.185299
-0.064213 -2.405794 -0.185386
-0.064243 -2.425381 -0.185472
-0.064273 -2.444966 -0.185558
-0.049909 -2.464507 -0.144090
-0.049939 -2.484089 -0.144175
-0.049968 -2.503669 -0.144259
-0.049997 -2.523247 -0.144343
-0.233875 -1.974431 -0.045559
-0.233948 -1.994059 -0.045573
-0.277177 -2.013722 -0.053994
-0.234099 -2.033312 -0.045603
-0.540276 -2.973375 -0.105246
-0.540332 -2.992913 -0.105257
-0.454007 -3.012403 -0.088441
-0.410862 -3.031920 -0.080036
-0.410905 -3.051461 -0.080044
-0.410945 -3.071002 -0.080052
-0.367782 -3.090526 -0.071644
-0.367813 -3.110068 -0.071650
-0.367842 -3.129610 -0.071656
-0.411072 -3.149163 -0.080077
-0.411096 -3.168704 -0.080082
-0.454322 -3.188254 -0.088502
-0.454339 -3.207794 -0.088506
-0.454353 -3.227334 -0.088508
-0.454363 -3.246875 -0.088510
-0.454369 -3.266417 -0.088511
-0.454371 -3.285959 -0.088512
-0.454369 -3.305502 -0.088511
-0.454363 -3.325047 -0.088510
-0.454352 -3.344593 -0.088508
-0.454338 -3.364140 -0.088505
-0.454319 -3.383688 -0.088502
-0.454295 -3.403238 -0.088497
-0.454268 -3.422790 -0.088492
-0.454236 -3.442343 -0.088485
-0.497430 -3.461880 -0.096900
0.206386 -2.150362 0.512465
0.124207 -2.170140 0.308412
0.074898 -2.189856 0.185975
0.058442 -2.209500 0.145115
0.009136 -2.229221 0.022685
-0.023746 -2.248905 -0.058962
-0.023778 -2.268506 -0.059043
-0.023811 -2.288106 -0.059125
-0.073121 -2.307830 -0.181564
-0.073155 -2.327427 -0.181648
-0.073189 -2.347021 -0.181732
-0.073224 -2.366614 -0.181817
-0.073258 -2.386205 -0.181902
-0.073292 -2.405794 -0.181988
-0.073326 -2.425381 -0.182072
-0.073360 -2.444966 -0.182157
-0.056966 -2.464507 -0.141449
-0.057000 -2.484089 -0.141533
-0.057033 -2.503669 -0.141615
-0.057066 -2.523247 -0.141697
-0.057099 -2.542823 -0.141779
-0.057131 -2.562398 -0.141859
-0.057163 -2.581971 -0.141939
-0.057195 -2.601542 -0.142018
0.213020 -2.150395 0.461703
0.120868 -2.170176 0.261972
0.083993 -2.189856 0.182049
0.065539 -2.209500 0.142051
0.010245 -2.229221 0.022206
-0.026629 -2.248905 -0.057717
-0.026666 -2.268506 -0.057796
-0.026703 -2.288106 -0.057876
-0.063580 -2.307788 -0.137805
-0.063618 -2.327384 -0.137887
-0.063656 -2.346979 -0.137969
-0.063694 -2.366571 -0.138052
-0.063732 -2.386163 -0.138134
-0.063770 -2.405751 -0.138217
-0.063808 -2.425339 -0.138299
-0.082269 -2.444966 -0.178311
-0.063884 -2.464507 -0.138463
-0.063921 -2.484089 -0.138544
-0.063958 -2.503669 -0.138625
-0.082420 -2.523288 -0.178639
-0.133367 -2.131451 -0.249460
-0.009039 -2.150830 -0.016907
0.094564 -2.170249 0.176879
0.094526 -2.189856 0.176809
0.094489 -2.209462 0.176738
0.032260 -2.229182 0.060341
-0.029969 -2.248905 -0.056056
-0.030010 -2.268506 -0.056133
-0.050781 -2.288147 -0.094985
-0.092284 -2.307830 -0.172615
-0.071596 -2.327384 -0.133919
-0.071639 -2.346979 -0.133998
-0.092413 -2.366614 -0.172856
-0.092456 -2.386205 -0.172937
-0.092500 -2.405794 -0.173018
-0.092542 -2.425381 -0.173098
-0.071852 -2.444924 -0.134398
-0.071895 -2.464507 -0.134477
-0.071937 -2.484089 -0.134556
-0.071979 -2.503669 -0.134635
-0.072021 -2.523247 -0.134713
-0.072062 -2.542823 -0.134790
-0.072103 -2.562398 -0.134867
-0.072144 -2.581971 -0.134943
-0.072184 -2.601542 -0.135018
-0.072223 -2.621112 -0.135092
-0.072262 -2.640680 -0.135164
-0.072301 -2.660247 -0.135236
-0.072338 -2.679812 -0.135306
-0.072375 -2.699376 -0.135375
-0.072411 -2.718938 -0.135443
-0.072446 -2.738500 -0.135509
-0.072481 -2.758059 -0.135573
-0.072515 -2.777618 -0.135636
-0.051802 -2.797145 -0.096894
-0.093618 -3.383768 -0.175109
-0.114374 -3.403312 -0.213934
-0.114355 -3.422874 -0.213898
0.279818 -2.150362 0.476359
0.190673 -2.170105 0.324600
0.123818 -2.189819 0.210786
0.101506 -2.209462 0.172803
0.012387 -2.229221 0.021087
-0.054463 -2.248945 -0.092717
-0.076777 -2.268589 -0.130704
-0.076822 -2.288189 -0.130781
-0.076868 -2.307788 -0.130859
-0.076914 -2.327384 -0.130937
-0.076959 -2.346979 -0.131015
-0.077005 -2.366571 -0.131093
-0.077051 -2.386163 -0.131171
-0.077097 -2.405751 -0.131250
-0.077143 -2.425339 -0.131327
-0.077189 -2.444924 -0.131405
-0.077235 -2.464507 -0.131483
-0.077280 -2.484089 -0.131561
-0.077325 -2.503669 -0.131637
-0.077370 -2.523247 -0.131713
-0.055138 -2.542783 -0.093867
-0.078002 -2.836288 -0.132789
-0.078033 -2.855843 -0.132842
-0.078063 -2.875397 -0.132894
-0.078092 -2.894950 -0.132943
-0.179260 -2.131491 -0.273296
0.278881 -2.150395 0.425174
0.206474 -2.170105 0.314785
0.134078 -2.189819 0.204412
0.109918 -2.209462 0.167578
0.061642 -2.229142 0.093978
-0.058977 -2.248945 -0.089914
-0.083139 -2.268589 -0.126752
-0.107304 -2.288231 -0.163592
-0.107354 -2.307830 -0.163668
-0.083288 -2.327384 -0.126978
-0.083337 -2.346979 -0.127053
-0.083387 -2.366571 -0.127130
-0.083437 -2.386163 -0.127205
-0.083486 -2.405751 -0.127281
-0.107654 -2.425381 -0.164126
-0.107704 -2.444966 -0.164203
-0.083635 -2.464507 -0.127508
-0.083684 -2.484089 -0.127583
-0.083733 -2.503669 -0.127657
-0.083781 -2.523247 -0.127731
-0.083830 -2.542823 -0.127805
-0.083877 -2.562398 -0.127877
-0.083924 -2.581971 -0.127949
-0.083971 -2.601542 -0.128020
-0.084017 -2.621112 -0.128090
-0.084062 -2.640680 -0.128159
-0.084107 -2.660247 -0.128227
-0.084151 -2.679812 -0.128294
-0.084193 -2.699376 -0.128359
-0.084236 -2.718938 -0.128423
-0.084277 -2.738500 -0.128486
-0.084317 -2.758059 -0.128547
-0.060224 -2.777586 -0.091816
-0.060261 -2.797145 -0.091872
-0.192542 -2.131491 -0.264107
0.299542 -2.150395 0.410879
0.221772 -2.170105 0.304202
0.144012 -2.189819 0.197540
0.118062 -2.209462 0.161944
0.092111 -2.229104 0.126348
-0.063346 -2.248945 -0.086891
-0.089299 -2.268589 -0.122490
-0.115254 -2.288231 -0.158092
-0.115307 -2.307830 -0.158166
-0.115361 -2.327427 -0.158239
-0.115414 -2.347021 -0.158313
-0.115468 -2.366614 -0.158387
-0.115522 -2.386205 -0.158461
-0.115576 -2.405794 -0.158535
-0.115630 -2.425381 -0.158608
-0.115684 -2.444966 -0.158682
-0.089831 -2.464507 -0.123221
-0.089884 -2.484089 -0.123293
-0.089937 -2.503669 -0.123365
-0.089989 -2.523247 -0.123436
-0.090041 -2.542823 -0.123508
-0.090092 -2.562398 -0.123578
-0.090142 -2.581971 -0.123647
-0.090192 -2.601542 -0.123716
-0.090242 -2.621112 -0.123784
-0.090290 -2.640680 -0.123850
-0.090338 -2.660247 -0.123916
-0.090385 -2.679812 -0.123980
-0.090431 -2.699376 -0.124043
-0.090477 -2.718938 -0.124106
-0.090521 -2.738500 -0.124166
-0.090563 -2.758059 -0.124225
-0.090606 -2.777618 -0.124283
-0.090646 -2.797176 -0.124338
-0.090685 -2.816733 -0.124392
-0.090723 -2.836288 -0.124444
-0.090760 -2.855843 -0.124494
-0.090795 -2.875397 -0.124542
-0.090829 -2.894950 -0.124589
-0.090861 -2.914502 -0.124633
-0.220745 -3.422820 -0.302794
-0.246673 -3.442359 -0.338358
0.236528 -2.170105 0.292876
0.153594 -2.189819 0.190185
0.098292 -2.209500 0.121707
0.070614 -2.229142 0.087436
-0.067561 -2.248945 -0.083656
-0.095241 -2.268589 -0.117930
-0.095297 -2.288189 -0.118000
-0.095354 -2.307788 -0.118070
-0.095411 -2.327384 -0.118140
-0.095467 -2.346979 -0.118210
-0.095524 -2.366571 -0.118281
-0.095581 -2.386163 -0.118351
-0.095638 -2.405751 -0.118422
-0.095695 -2.425339 -0.118492
-0.095752 -2.444924 -0.118563
-0.095808 -2.464507 -0.118633
-0.095865 -2.484089 -0.118703
-0.095921 -2.503669 -0.118772
-0.095976 -2.523247 -0.118840
-0.068398 -2.542783 -0.084693
-0.096086 -2.562398 -0.118977
-0.096140 -2.581971 -0.119043
-0.096193 -2.601542 -0.119110
-0.096246 -2.621112 -0.119175
-0.096298 -2.640680 -0.119239
-0.096349 -2.660247 -0.119302
-0.096399 -2.679812 -0.119364
-0.096448 -2.699376 -0.119425
-0.096497 -2.718938 -0.119485
-0.013613 -2.738400 -0.016856
-0.013656 -2.757962 -0.016909
-0.013697 -2.777524 -0.016960
-0.013737 -2.797085 -0.017009
-0.013775 -2.816645 -0.017057
-0.013812 -2.836204 -0.017103
-0.013848 -2.855762 -0.017147
-0.041535 -2.875344 -0.051430
-0.041568 -2.894900 -0.051471
-0.013944 -2.914433 -0.017266
0.162854 -2.170212 0.182424
0.133519 -2.189856 0.149564
0.104184 -2.209500 0.116704
0.074847 -2.229142 0.083842
-0.071611 -2.248945 -0.080216
-0.100950 -2.268589 -0.113081
-0.101010 -2.288189 -0.113148
-0.101070 -2.307788 -0.113215
-0.101130 -2.327384 -0.113283
-0.101190 -2.346979 -0.113350
-0.101250 -2.366571 -0.113418
-0.101311 -2.386163 -0.113485
-0.101371 -2.405751 -0.113553
-0.101431 -2.425339 -0.113621
-0.101492 -2.444924 -0.113688
-0.101552 -2.464507 -0.113755
-0.101611 -2.484089 -0.113822
-0.101671 -2.503669 -0.113889
-0.101729 -2.523247 -0.113954
-0.101788 -2.542823 -0.114020
-0.101846 -2.562398 -0.114085
-0.101903 -2.581971 -0.114149
-0.101960 -2.601542 -0.114212
-0.102016 -2.621112 -0.114275
-0.102070 -2.640680 -0.114336
-0.102125 -2.660247 -0.114397
-0.102178 -2.679812 -0.114457
-0.102230 -2.699376 -0.114515
-0.131578 -2.718974 -0.147390
-0.160926 -2.738570 -0.180264
-0.248864 -2.758236 -0.278771
-0.219620 -2.777754 -0.246012
-0.219670 -2.797308 -0.246068
-0.219718 -2.816861 -0.246122
-0.219765 -2.836412 -0.246175
-0.219811 -2.855962 -0.246226
-0.190554 -2.875482 -0.213453
-0.190595 -2.895032 -0.213499
-0.161330 -2.914553 -0.180717
-0.132059 -2.934078 -0.147929
0.249364 -3.305754 0.279331
0.220019 -3.325311 0.246459
0.202533 -2.170176 0.205472
0.140744 -2.189856 0.142786
0.078956 -2.209538 0.080102
0.048032 -2.229182 0.048729
-0.075486 -2.248945 -0.076581
-0.075548 -2.268548 -0.076644
-0.106475 -2.288189 -0.108020
-0.106539 -2.307788 -0.108085
-0.106602 -2.327384 -0.108149
-0.106665 -2.346979 -0.108213
-0.106729 -2.366571 -0.108278
-0.106793 -2.386163 -0.108342
-0.106857 -2.405751 -0.108407
-0.106920 -2.425339 -0.108472
-0.106983 -2.444924 -0.108536
-0.107047 -2.464507 -0.108600
-0.107110 -2.484089 -0.108664
-0.107172 -2.503669 -0.108727
-0.107234 -2.523247 -0.108790
-0.107296 -2.542823 -0.108853
-0.107357 -2.562398 -0.108915
-0.107417 -2.581971 -0.108976
-0.107477 -2.601542 -0.109037
-0.107536 -2.621112 -0.109096
-0.107594 -2.640680 -0.109155
-0.107651 -2.660247 -0.109213
-0.107707 -2.679812 -0.109270
-0.107762 -2.699376 -0.109325
-0.138698 -2.718974 -0.140710
-0.169634 -2.738570 -0.172095
-0.200569 -2.758163 -0.203479
-0.231504 -2.777754 -0.234863
-0.231557 -2.797308 -0.234917
-0.231608 -2.816861 -0.234968
-0.231657 -2.836412 -0.235019
-0.231706 -2.855962 -0.235068
-0.231752 -2.875512 -0.235115
-0.200908 -2.895032 -0.203824
-0.200951 -2.914580 -0.203867
-0.170099 -2.934103 -0.172567
0.262858 -3.305754 0.266672
0.262900 -3.325339 0.266715
-0.014338 -2.170440 -0.012853
0.051074 -2.189970 0.045782
0.051012 -2.209577 0.045727
-0.014528 -2.229261 -0.013023
-0.178287 -2.249070 -0.159816
-0.178355 -2.268672 -0.159876
-0.178422 -2.288273 -0.159937
-0.178490 -2.307873 -0.159998
-0.178558 -2.327469 -0.160059
-0.178627 -2.347064 -0.160120
-0.178695 -2.366657 -0.160182
-0.178764 -2.386248 -0.160243
-0.178833 -2.405837 -0.160305
-0.178902 -2.425424 -0.160367
-0.178970 -2.445009 -0.160428
-0.179107 -2.484173 -0.160551
-0.211921 -2.503795 -0.189966
-0.179242 -2.523330 -0.160672
-0.179309 -2.542906 -0.160732
-0.212124 -2.562521 -0.190147
-0.179441 -2.582052 -0.160850
-0.179506 -2.601622 -0.160909
-0.179570 -2.621191 -0.160966
-0.179634 -2.640758 -0.161023
-0.212449 -2.660362 -0.190439
-0.212511 -2.679925 -0.190494
-0.212573 -2.699487 -0.190549
-0.179877 -2.719010 -0.161241
-0.179935 -2.738570 -0.161293
-0.179992 -2.758128 -0.161344
-0.180047 -2.777685 -0.161393
-0.180101 -2.797241 -0.161441
-0.180153 -2.816795 -0.161488
-0.180203 -2.836349 -0.161534
-0.180252 -2.855901 -0.161577
-0.180299 -2.875453 -0.161619
-0.213109 -2.895032 -0.191031
0.180240 -3.286105 0.161566
0.180274 -3.305682 0.161597
-0.251035 -2.053010 -0.208783
-0.251097 -2.072633 -0.208834
-0.251160 -2.092254 -0.208887
-0.251224 -2.111874 -0.208940
-0.251289 -2.131491 -0.208994
-0.285160 -2.151147 -0.237164
-0.251422 -2.170720 -0.209104
-0.251489 -2.190332 -0.209160
-0.251557 -2.209941 -0.209217
-0.251626 -2.229549 -0.209275
-0.251696 -2.249154 -0.209332
-0.251766 -2.268758 -0.209390
-0.285644 -2.288402 -0.237566
-0.251907 -2.307958 -0.209508
-0.251979 -2.327555 -0.209568
-0.252050 -2.347150 -0.209627
-0.252122 -2.366744 -0.209687
-0.252194 -2.386335 -0.209747
0.152229 -3.305660 0.126607
-0.583461 -1.797911 -0.083993
-0.583517 -1.817561 -0.084001
-0.540039 -1.837182 -0.077742
-0.540099 -1.856828 -0.077751
-0.583696 -1.876502 -0.084027
-0.583759 -1.896146 -0.084036
-0.453231 -1.915693 -0.065245
-0.409775 -1.935298 -0.058990
-0.409845 -1.954934 -0.059000
-0.453442 -1.974602 -0.065276
-0.409990 -1.994199 -0.059021
-0.410066 -2.013829 -0.059031
-0.410142 -2.033458 -0.059043
-0.497272 -2.053159 -0.071585
-0.497352 -2.072784 -0.071597
-0.499530 -2.543163 -0.071910
-0.499623 -2.562735 -0.071924
-0.499715 -2.582304 -0.071937
-0.499806 -2.601872 -0.071950
-0.499897 -2.621438 -0.071963
-0.499987 -2.641002 -0.071976
-0.500075 -2.660564 -0.071989
-0.500162 -2.680125 -0.072001
-0.456711 -2.699643 -0.065746
-0.500333 -2.719239 -0.072026
-0.501209 -2.953808 -0.072152
-0.544815 -2.973375 -0.078430
-0.544872 -2.992913 -0.078438
-0.544926 -3.012450 -0.078445
-0.544977 -3.031987 -0.078453
-0.545025 -3.051524 -0.078460
-0.545069 -3.071060 -0.078466
-0.545112 -3.090596 -0.078472
-0.545150 -3.110131 -0.078478
-0.545185 -3.129667 -0.078483
-0.545217 -3.149202 -0.078487
-0.545245 -3.168738 -0.078491
-0.545270 -3.188274 -0.078495
-0.545291 -3.207810 -0.078498
-0.501741 -3.227340 -0.072229
-0.501752 -3.246879 -0.072230
-0.501760 -3.266418 -0.072231
-0.501764 -3.285959 -0.072232
-0.501764 -3.305501 -0.072232
-0.501760 -3.325043 -0.072231
-0.501751 -3.344587 -0.072230
-0.501738 -3.364132 -0.072228
-0.501722 -3.383678 -0.072226
-0.501700 -3.403226 -0.072223
-0.501674 -3.422775 -0.072219
-0.501644 -3.442327 -0.072215
-0.545200 -3.461863 -0.078485
-0.632335 -3.481380 -0.091029
-0.675881 -3.500912 -0.097297
-0.980806 -3.539880 -0.141193
-0.587176 -1.778260 -0.051412
-0.587229 -1.797911 -0.051417
-0.587285 -1.817561 -0.051422
-0.587343 -1.837209 -0.051427
-0.587403 -1.856857 -0.051432
-0.587465 -1.876502 -0.051438
-0.587529 -1.896146 -0.051443
-0.587596 -1.915788 -0.051449
-0.587663 -1.935428 -0.051455
-0.587733 -1.955067 -0.051461
-0.587805 -1.974704 -0.051468
-0.587878 -1.994339 -0.051474
-0.587953 -2.013972 -0.051481
-0.544216 -2.033567 -0.047651
-0.544295 -2.053196 -0.047658
-0.544375 -2.072822 -0.047665
-0.588437 -2.131730 -0.051523
-0.588523 -2.151349 -0.051530
-0.588609 -2.170965 -0.051538
-0.588876 -2.229802 -0.051561
-0.588967 -2.249410 -0.051569
-0.589813 -2.425776 -0.051643
-0.589909 -2.445361 -0.051652
-0.590004 -2.464943 -0.051660
-0.590290 -2.523677 -0.051685
-0.590384 -2.543250 -0.051693
-0.546663 -2.562778 -0.047865
-0.590572 -2.582391 -0.051710
-0.590664 -2.601959 -0.051718
-0.590756 -2.621523 -0.051726
-0.590848 -2.641087 -0.051734
-0.547120 -2.660606 -0.047905
-0.547209 -2.680166 -0.047913
-0.591114 -2.699764 -0.051757
-0.591201 -2.719319 -0.051765
-0.591286 -2.738873 -0.051772
-0.591369 -2.758425 -0.051780
-0.591452 -2.777975 -0.051787
-0.591532 -2.797524 -0.051794
-0.591610 -2.817071 -0.051801
-0.591687 -2.836617 -0.051807
-0.591762 -2.856161 -0.051814
-0.591834 -2.875704 -0.051820
-0.591905 -2.895246 -0.051827
-0.591973 -2.914787 -0.051833
-0.592039 -2.934326 -0.051838
-0.592102 -2.953865 -0.051844
-0.592163 -2.973402 -0.051849
-0.592221 -2.992939 -0.051854
-0.592276 -3.012475 -0.051859
-0.636159 -3.032035 -0.055701
-0.636210 -3.051569 -0.055706
-0.636257 -3.071102 -0.055710
-0.636302 -3.090635 -0.055714
-0.636343 -3.110167 -0.055718
-0.636381 -3.129700 -0.055721
-0.636416 -3.149232 -0.055724
-0.636447 -3.168764 -0.055727
-0.636474 -3.188297 -0.055729
-0.636499 -3.207829 -0.055731
-0.592676 -3.227355 -0.051894
-0.592691 -3.246890 -0.051895
-0.592702 -3.266426 -0.051896
-0.592709 -3.285963 -0.051897
-0.592713 -3.305501 -0.051897
-0.592712 -3.325039 -0.051897
-0.592707 -3.344579 -0.051897
-0.592698 -3.364120 -0.051896
-0.592685 -3.383662 -0.051895
-0.592668 -3.403206 -0.051893
-0.592645 -3.422751 -0.051891
-0.592619 -3.442298 -0.051889
-0.592588 -3.461847 -0.051886
-0.720647 -1.758677 -0.031830
-0.676744 -1.778308 -0.029890
-0.676797 -1.797962 -0.029893
-0.632903 -1.817587 -0.027954
-0.632961 -1.837237 -0.027957
-0.633021 -1.856885 -0.027959
-0.633082 -1.876531 -0.027962
-0.633146 -1.896176 -0.027965
-0.633212 -1.915819 -0.027968
-0.633280 -1.935461 -0.027971
-0.633350 -1.955100 -0.027974
-0.633422 -1.974738 -0.027977
-0.633495 -1.994374 -0.027980
-0.633571 -2.014008 -0.027984
-0.633647 -2.033640 -0.027987
-0.633725 -2.053270 -0.027990
-0.589864 -2.072860 -0.026053
-0.636006 -2.543295 -0.028091
-0.636101 -2.562866 -0.028095
-0.636194 -2.582435 -0.028099
-0.636380 -2.621566 -0.028108
-0.636472 -2.641129 -0.028112
-0.636563 -2.660690 -0.028116
-0.636652 -2.680248 -0.028120
-0.636741 -2.699805 -0.028124
-0.681754 -2.973459 -0.030112
-0.681814 -2.992993 -0.030114
-0.681871 -3.012527 -0.030117
-0.681926 -3.032060 -0.030119
-0.681978 -3.051592 -0.030122
-0.725981 -3.071146 -0.032065
-0.726028 -3.090676 -0.032067
-0.726071 -3.110205 -0.032069
-0.726111 -3.129735 -0.032071
-0.726148 -3.149264 -0.032073
-0.682222 -3.168778 -0.030132
-0.682251 -3.188309 -0.030134
-0.682276 -3.207840 -0.030135
-0.682298 -3.227372 -0.030136
-0.726282 -3.246912 -0.032078
-0.726297 -3.266442 -0.032079
-0.726309 -3.285974 -0.032080
-0.682348 -3.305503 -0.030138
-0.682351 -3.325038 -0.030138
-0.682348 -3.344574 -0.030138
-0.682343 -3.364111 -0.030138
-0.682333 -3.383650 -0.030137
-0.682319 -3.403190 -0.030137
-0.682301 -3.422730 -0.030136
-0.682278 -3.442273 -0.030135
-0.682251 -3.461818 -0.030134
-0.726204 -3.481349 -0.032075
-0.726169 -3.500895 -0.032073
-0.902046 -3.520373 -0.039842
-0.989952 -3.539880 -0.043724
-0.677295 -1.738998 0.003575
-0.677343 -1.758654 0.003575
-0.677394 -1.778308 0.003575
-0.677447 -1.797962 0.003575
-0.677502 -1.817614 0.003576
-0.721554 -1.837291 0.003808
-0.765612 -1.856969 0.004041
-0.765673 -1.876618 0.004041
-0.765736 -1.896266 0.004041
-0.765801 -1.915912 0.004042
-0.765868 -1.935556 0.004042
-0.765936 -1.955198 0.004043
-0.766006 -1.974838 0.004043
-0.766079 -1.994477 0.004043
-0.766152 -2.014113 0.004044
-0.766229 -2.033748 0.004044
-0.766306 -2.053380 0.004044
-0.722392 -2.072973 0.003813
-0.770456 -2.993049 0.004066
-0.814508 -3.012607 0.004299
-0.814564 -3.032135 0.004299
-0.814619 -3.051664 0.004299
-0.814669 -3.071191 0.004300
-0.814718 -3.090719 0.004300
-0.858759 -3.110266 0.004532
-0.858801 -3.129791 0.004533
-0.858841 -3.149315 0.004533
-0.858877 -3.168840 0.004533
-0.858910 -3.188364 0.004533
-0.858940 -3.207889 0.004533
-0.814966 -3.227403 0.004301
-0.814988 -3.246929 0.004301
-0.815006 -3.266457 0.004302
-0.815021 -3.285985 0.004302
-0.815031 -3.305513 0.004302
-0.815037 -3.325042 0.004302
-0.815040 -3.344573 0.004302
-0.815039 -3.364104 0.004302
-0.815033 -3.383636 0.004302
-0.815024 -3.403170 0.004302
-0.815011 -3.422705 0.004302
-0.814992 -3.442242 0.004301
-0.814970 -3.461780 0.004301
-0.814944 -3.481320 0.004301
-0.814913 -3.500863 0.004301
-0.814877 -3.520406 0.004301
-0.632316 -1.719320 0.034619
-0.676291 -1.738998 0.037027
-0.720271 -1.758677 0.039435
-0.764256 -1.778357 0.041843
-0.764308 -1.798012 0.041846
-0.764363 -1.817666 0.041849
-0.808357 -1.837345 0.044257
-0.896303 -1.857052 0.049072
-0.896362 -1.876704 0.049076
-0.852478 -1.896325 0.046673
-0.852542 -1.915972 0.046676
-0.852608 -1.935618 0.046680
-0.896618 -1.955295 0.049090
-0.896687 -1.974937 0.049093
-0.896757 -1.994578 0.049097
-0.896830 -2.014217 0.049101
-0.896904 -2.033854 0.049105
-0.853040 -2.053452 0.046704
-0.853117 -2.073084 0.046708
-0.899856 -2.680499 0.049267
-0.899945 -2.700052 0.049272
-0.900033 -2.719604 0.049277
-0.944756 -2.915046 0.051725
-0.944826 -2.934577 0.051729
-0.944893 -2.954107 0.051733
-0.944958 -2.973635 0.051736
-0.945021 -2.993163 0.051740
-0.945081 -3.012689 0.051743
-0.945139 -3.032214 0.051746
-0.945194 -3.051739 0.051749
-0.901320 -3.071238 0.049347
-0.945297 -3.090785 0.051755
-0.945344 -3.110308 0.051757
-0.945387 -3.129829 0.051760
-0.945428 -3.149351 0.051762
-0.945466 -3.168873 0.051764
-0.945501 -3.188394 0.051766
-0.945531 -3.207916 0.051768
-0.945559 -3.227437 0.051769
-0.945583 -3.246959 0.051770
-0.945604 -3.266481 0.051772
-0.901687 -3.285997 0.049367
-0.901699 -3.305521 0.049368
-0.901708 -3.325047 0.049368
-0.901713 -3.344574 0.049369
-0.901714 -3.364102 0.049369
-0.945651 -3.383628 0.051774
-0.945644 -3.403157 0.051774
-0.945635 -3.422686 0.051773
-0.945621 -3.442217 0.051773
-0.945603 -3.461749 0.051772
-0.945580 -3.481284 0.051770
-0.945554 -3.500819 0.051769
-0.945523 -3.520358 0.051767
-0.945488 -3.539897 0.051765
-0.150520 -2.052899 -0.123363
-0.150582 -2.072520 -0.123413
-0.150645 -2.092139 -0.123465
-0.629835 -1.719320 0.065811
-0.761159 -1.739042 0.079534
-0.761207 -1.758700 0.079539
-0.805023 -1.778380 0.084117
-0.805075 -1.798037 0.084122
-0.848898 -1.817717 0.088701
-0.980288 -1.837450 0.102430
-0.980344 -1.857105 0.102436
-1.024188 -1.876787 0.107018
-1.024247 -1.896440 0.107024
-1.024308 -1.916091 0.107030
-1.024371 -1.935740 0.107037
-1.024436 -1.955388 0.107043
-1.024503 -1.975034 0.107050
-1.024571 -1.994677 0.107058
-0.980859 -2.014285 0.102490
-0.980932 -2.033923 0.102498
-0.981006 -2.053559 0.102505
-0.981082 -2.073193 0.102513
-0.981159 -2.092824 0.102521
-0.981238 -2.112453 0.102530
-0.981318 -2.132080 0.102538
-0.981399 -2.151705 0.102547
-0.981482 -2.171326 0.102555
-0.981566 -2.190946 0.102564
-0.981651 -2.210562 0.102573
-0.981737 -2.230177 0.102582
-0.981824 -2.249788 0.102591
-0.981912 -2.269398 0.102600
-0.982001 -2.289004 0.102609
-0.938324 -2.308565 0.098046
-0.983199 -2.543647 0.102735
-0.983291 -2.563216 0.102744
-0.983383 -2.582783 0.102754
-0.983475 -2.602348 0.102763
-0.983566 -2.621910 0.102773
-0.983656 -2.641469 0.102782
-0.983745 -2.661027 0.102792
-0.983835 -2.680582 0.102801
-0.983922 -2.700135 0.102810
-0.984010 -2.719685 0.102819
-0.984095 -2.739233 0.102828
-0.984180 -2.758779 0.102837
-0.984263 -2.778323 0.102846
-0.984345 -2.797865 0.102854
-0.984425 -2.817405 0.102863
-0.985065 -2.993191 0.102930
-0.985126 -3.012716 0.102936
-0.941429 -3.032214 0.098370
-0.941484 -3.051739 0.098376
-0.897782 -3.071238 0.093809
-0.897831 -3.090763 0.093814
-0.897877 -3.110287 0.093819
-0.897920 -3.129810 0.093824
-0.897960 -3.149333 0.093828
-0.897997 -3.168856 0.093832
-0.898031 -3.188379 0.093835
-0.898062 -3.207902 0.093839
-0.898088 -3.227425 0.093841
-0.854350 -3.246939 0.089271
-0.854368 -3.266464 0.089273
-0.898148 -3.285997 0.093848
-0.941923 -3.305527 0.098422
-1.073212 -3.325063 0.112140
-1.116977 -3.344586 0.116713
-1.116983 -3.364105 0.116714
-1.073226 -3.383625 0.112142
-1.073223 -3.403147 0.112141
-1.073216 -3.422671 0.112140
-0.985585 -3.520342 0.102984
-1.029322 -3.539864 0.107554
-1.029286 -3.559402 0.107550
-0.930237 -1.719464 0.143952
-0.843282 -1.739085 0.130496
-0.799836 -1.758723 0.123773
-0.843377 -1.778404 0.130510
-0.930423 -1.798110 0.143981
-0.930474 -1.817768 0.143988
-0.974032 -1.837450 0.150729
-0.974087 -1.857105 0.150737
-0.974144 -1.876759 0.150746
-0.974204 -1.896411 0.150756
-0.974265 -1.916062 0.150765
-0.974328 -1.935710 0.150775
-0.974393 -1.955357 0.150785
-0.974461 -1.975002 0.150795
-0.974529 -1.994644 0.150806
-0.974599 -2.014285 0.150817
-0.974671 -2.033923 0.150828
-0.931249 -2.053524 0.144108
-0.931325 -2.073157 0.144120
-0.974897 -2.092824 0.150863
-0.974975 -2.112453 0.150875
-0.975055 -2.132080 0.150887
-0.933536 -2.563173 0.144462
-0.977107 -2.582783 0.151205
-0.977198 -2.602348 0.151219
-0.933810 -2.621867 0.144505
-0.933900 -2.641428 0.144519
-0.933990 -2.660985 0.144533
-0.934079 -2.680541 0.144546
-0.934166 -2.700094 0.144560
-0.934253 -2.719644 0.144573
-0.934339 -2.739193 0.144587
-0.934422 -2.758740 0.144599
-0.934506 -2.778284 0.144612
-0.934587 -2.797827 0.144625
-0.934667 -2.817368 0.144637
-0.934746 -2.836907 0.144650
-0.934822 -2.856444 0.144661
-0.934897 -2.875980 0.144673
-0.934970 -2.895514 0.144684
-0.935041 -2.915046 0.144695
-0.935110 -2.934577 0.144706
-0.935177 -2.954107 0.144716
-0.935242 -2.973635 0.144726
-0.935304 -2.993163 0.144736
-0.935363 -3.012689 0.144745
-0.935421 -3.032214 0.144754
-0.935475 -3.051739 0.144762
-0.892052 -3.071238 0.138043
-0.892101 -3.090763 0.138050
-0.892147 -3.110287 0.138057
-0.892189 -3.129810 0.138064
-0.892229 -3.149333 0.138070
-0.892266 -3.168856 0.138076
-0.892299 -3.188379 0.138081
-0.892330 -3.207902 0.138086
-0.892356 -3.227425 0.138090
-0.892380 -3.246949 0.138094
-0.935881 -3.266481 0.144825
-0.979378 -3.286011 0.151556
-1.109827 -3.305552 0.171743
-1.153315 -3.325073 0.178473
-1.153324 -3.344590 0.178474
-1.153330 -3.364107 0.178475
-1.153332 -3.383625 0.178475
-0.935832 -3.500819 0.144818
-0.935801 -3.520358 0.144813
-0.935766 -3.539897 0.144807
-1.066206 -3.559384 0.164993
-1.240103 -3.578849 0.191903
-1.283542 -3.598362 0.198625
-0.922034 -1.739127 0.189736
-0.922079 -1.758789 0.189745
-0.922126 -1.778450 0.189755
-0.922175 -1.798110 0.189765
-0.922226 -1.817768 0.189776
-0.922279 -1.837424 0.189787
-0.965452 -1.857105 0.198671
-0.965509 -1.876759 0.198682
-0.965568 -1.896411 0.198694
-0.965629 -1.916062 0.198707
-0.965691 -1.935710 0.198720
-0.965755 -1.955357 0.198733
-0.965822 -1.975002 0.198747
-0.965890 -1.994644 0.198761
-0.922848 -2.014251 0.189904
-0.922920 -2.033889 0.189918
-0.922994 -2.053524 0.189934
-0.923069 -2.073157 0.189949
-0.923145 -2.092788 0.189965
-0.925260 -2.563173 0.190400
-0.925351 -2.582740 0.190419
-0.925442 -2.602305 0.190437
-0.925532 -2.621867 0.190456
-0.925621 -2.641428 0.190474
-0.925711 -2.660985 0.190493
-0.925798 -2.680541 0.190511
-0.926302 -2.797827 0.190614
-0.926381 -2.817368 0.190631
-0.926459 -2.836907 0.190647
-0.927072 -3.012689 0.190773
-0.927128 -3.032214 0.190784
-0.884093 -3.051713 0.181928
-0.884144 -3.071238 0.181939
-0.884192 -3.090763 0.181949
-0.884238 -3.110287 0.181958
-0.884280 -3.129810 0.181967
-0.884320 -3.149333 0.181975
-0.841262 -3.168840 0.173115
-0.841295 -3.188364 0.173121
-0.841323 -3.207889 0.173127
-0.841349 -3.227414 0.173133
-0.884469 -3.246949 0.182006
-0.927585 -3.266481 0.190878
-0.970696 -3.286011 0.199750
-1.056898 -3.305545 0.217488
-1.100001 -3.325068 0.226358
-1.100010 -3.344586 0.226360
-1.100015 -3.364105 0.226361
-0.884427 -3.500833 0.181997
-0.884395 -3.520373 0.181991
-0.927471 -3.539897 0.190855
-1.272164 -3.598362 0.261786
-0.951918 -1.778473 0.254959
-0.909442 -1.798110 0.243582
-0.909492 -1.817768 0.243596
-0.909545 -1.837424 0.243610
-0.909600 -1.857078 0.243624
-0.909656 -1.876732 0.243640
-0.909715 -1.896383 0.243655
-0.909776 -1.916033 0.243672
-0.909838 -1.935680 0.243688
-0.909903 -1.955326 0.243705
-0.909968 -1.974970 0.243723
-0.910036 -1.994611 0.243741
-0.910106 -2.014251 0.243760
-0.910177 -2.033889 0.243779
-0.910250 -2.053524 0.243798
-0.910324 -2.073157 0.243818
-0.867889 -2.092751 0.232453
-0.910555 -2.132042 0.243880
-0.910634 -2.151666 0.243901
-0.871777 -3.012661 0.233494
-0.914327 -3.032214 0.244891
-0.871886 -3.051713 0.233523
-0.871936 -3.071238 0.233537
-0.871984 -3.090763 0.233550
-0.872029 -3.110287 0.233562
-0.872071 -3.129810 0.233573
-0.872110 -3.149333 0.233583
-0.872145 -3.168856 0.233593
-0.829678 -3.188364 0.222218
-0.829707 -3.207889 0.222226
-0.829733 -3.227414 0.222233
-0.829755 -3.246939 0.222239
-0.787268 -3.266457 0.210859
-0.787283 -3.285985 0.210863
-1.127308 -3.325073 0.301935
-1.127317 -3.344590 0.301937
-0.829726 -3.481308 0.222231
-0.829698 -3.500847 0.222224
-0.872184 -3.520373 0.233603
-0.957179 -3.539880 0.256368
-1.042164 -3.559384 0.279130
-0.562688 -1.738953 0.175159
-0.562736 -1.758607 0.175174
-0.730811 -1.778357 0.227494
-0.772877 -1.798037 0.240588
-0.856972 -1.817743 0.266766
-0.857024 -1.837398 0.266782
-0.899106 -1.857078 0.279882
-0.899162 -1.876732 0.279899
-0.899220 -1.896383 0.279917
-0.899279 -1.916033 0.279936
-0.899341 -1.935680 0.279955
-0.899405 -1.955326 0.279975
-0.899470 -1.974970 0.279995
-0.899537 -1.994611 0.280016
-0.899606 -2.014251 0.280038
-0.899676 -2.033889 0.280059
-0.857726 -2.053488 0.267001
-0.857800 -2.073121 0.267024
-0.857876 -2.092751 0.267047
-0.900050 -2.132042 0.280176
-0.900128 -2.151666 0.280200
-0.819658 -2.993105 0.255151
-0.861719 -3.012661 0.268244
-0.861775 -3.032187 0.268261
-0.861827 -3.051713 0.268277
-0.861877 -3.071238 0.268293
-0.861924 -3.090763 0.268308
-0.861968 -3.110287 0.268321
-0.862009 -3.129810 0.268334
-0.820040 -3.149315 0.255270
-0.820075 -3.168840 0.255280
-0.820106 -3.188364 0.255290
-0.820135 -3.207889 0.255299
-0.820160 -3.227414 0.255307
-0.820182 -3.246939 0.255314
-0.820199 -3.266464 0.255319
-0.820214 -3.285990 0.255324
-0.778209 -3.305513 0.242248
-0.862248 -3.325047 0.268409
-1.030299 -3.344583 0.320721
-1.030303 -3.364104 0.320722
-0.820154 -3.481308 0.255305
-0.820126 -3.500847 0.255296
-0.862121 -3.520373 0.268369
-0.946136 -3.539880 0.294522
-1.030140 -3.559384 0.320671
-1.240162 -3.578831 0.386049
-1.282130 -3.598343 0.399113
-1.240083 -3.617896 0.386024
-0.718590 -1.739042 0.263282
-0.718635 -1.758700 0.263299
-0.718682 -1.778357 0.263316
-0.718730 -1.798012 0.263334
-0.842748 -1.817743 0.308772
-0.842800 -1.837398 0.308791
-0.884183 -1.857078 0.323953
-0.884238 -1.876732 0.323974
-0.884295 -1.896383 0.323994
-0.884354 -1.916033 0.324016
-0.884414 -1.935680 0.324038
-0.884477 -1.955326 0.324061
-0.884541 -1.974970 0.324085
-0.884606 -1.994611 0.324109
-0.884674 -2.014251 0.324134
-0.884743 -2.033889 0.324159
-0.843490 -2.053488 0.309044
-0.843563 -2.073121 0.309071
-0.764069 -2.797713 0.279945
-0.805450 -2.817293 0.295107
-0.847417 -3.012661 0.310483
-0.847471 -3.032187 0.310503
-0.847522 -3.051713 0.310522
-0.806263 -3.071215 0.295405
-0.806309 -3.090741 0.295422
-0.806352 -3.110266 0.295437
-0.806392 -3.129791 0.295452
-0.806429 -3.149315 0.295466
-0.806463 -3.168840 0.295478
-0.806495 -3.188364 0.295489
-0.806522 -3.207889 0.295500
-0.806547 -3.227414 0.295509
-0.806569 -3.246939 0.295517
-0.847901 -3.266473 0.310660
-1.013164 -3.286027 0.371211
-1.013180 -3.305545 0.371216
-1.013190 -3.325063 0.371220
-1.013199 -3.344583 0.371223
-1.013202 -3.364104 0.371225
-0.806513 -3.500847 0.295496
-0.847812 -3.520373 0.310628
-0.930432 -3.539880 0.340899
-1.095677 -3.559350 0.401442
-1.136956 -3.578866 0.416566
-0.785713 -1.719424 0.332765
-0.704707 -1.739042 0.298457
-0.664234 -1.758677 0.281316
-0.704797 -1.778357 0.298495
-0.745366 -1.798037 0.315677
-0.826467 -1.817743 0.350025
-0.826518 -1.837398 0.350046
-0.867101 -1.857078 0.367234
-0.867155 -1.876732 0.367257
-0.867211 -1.896383 0.367281
-0.826739 -1.916003 0.350140
-0.826799 -1.935650 0.350166
-0.826861 -1.955295 0.350192
-0.826925 -1.974937 0.350219
-0.826990 -1.994578 0.350246
-0.867583 -2.014251 0.367438
-0.867651 -2.033889 0.367467
-0.827195 -2.053488 0.350333
-0.827266 -2.073121 0.350363
-0.827339 -2.092751 0.350394
-0.788916 -2.582654 0.334121
-0.789002 -2.602219 0.334158
-0.789087 -2.621782 0.334194
-0.789172 -2.641342 0.334230
-0.789256 -2.660901 0.334265
-0.789339 -2.680457 0.334300
-0.789421 -2.700011 0.334335
-0.789502 -2.719563 0.334370
-0.789661 -2.758661 0.334437
-0.749232 -2.778168 0.317314
-0.749308 -2.797713 0.317346
-0.789890 -2.817293 0.334534
-0.790171 -2.895446 0.334653
-0.790238 -2.914980 0.334681
-0.790302 -2.934513 0.334708
-0.749855 -2.954014 0.317578
-0.790423 -2.973575 0.334760
-0.790481 -2.993105 0.334784
-0.831045 -3.012661 0.351964
-0.831099 -3.032187 0.351986
-0.831149 -3.051713 0.352008
-0.790686 -3.071215 0.334871
-0.790732 -3.090741 0.334890
-0.790774 -3.110266 0.334908
-0.790813 -3.129791 0.334925
-0.790850 -3.149315 0.334940
-0.750369 -3.168824 0.317796
-0.750399 -3.188350 0.317808
-0.750425 -3.207876 0.317820
-0.750448 -3.227403 0.317829
-0.790986 -3.246939 0.334998
-0.831521 -3.266473 0.352165
-0.993591 -3.286027 0.420805
-0.993606 -3.305545 0.420811
-0.993616 -3.325063 0.420816
-0.993624 -3.344583 0.420819
-0.993628 -3.364104 0.420821
-0.790959 -3.481308 0.334987
-0.790932 -3.500847 0.334975
-0.790901 -3.520390 0.334962
-0.790866 -3.539934 0.334947
-1.074509 -3.559350 0.455075
-1.155505 -3.578849 0.489379
-0.649484 -1.739020 0.313763
-0.689147 -1.758700 0.332924
-0.689192 -1.778357 0.332946
-0.808120 -1.798085 0.390400
-0.808167 -1.817743 0.390423
-0.808217 -1.837398 0.390447
-0.808269 -1.857052 0.390471
-0.847955 -1.876732 0.409644
-0.808377 -1.896354 0.390524
-0.808434 -1.916003 0.390551
-0.808493 -1.935650 0.390580
-0.808553 -1.955295 0.390609
-0.808615 -1.974937 0.390639
-0.808679 -1.994578 0.390670
-0.808745 -2.014217 0.390701
-0.808811 -2.033854 0.390734
-0.808879 -2.053488 0.390766
-0.808949 -2.073121 0.390800
-0.809020 -2.092751 0.390834
-0.848719 -2.112416 0.410013
-0.809166 -2.132004 0.390905
-0.809241 -2.151627 0.390941
-0.809317 -2.171248 0.390978
-0.771364 -2.563086 0.372643
-0.771448 -2.582654 0.372684
-0.731922 -2.602175 0.353589
-0.771616 -2.621782 0.372765
-0.771699 -2.641342 0.372805
-0.771781 -2.660901 0.372844
-0.771862 -2.680457 0.372884
-0.771942 -2.700011 0.372922
-0.772022 -2.719563 0.372961
-0.772100 -2.739113 0.372998
-0.772177 -2.758661 0.373036
-0.772253 -2.778207 0.373072
-0.772327 -2.797750 0.373108
-0.772400 -2.817293 0.373144
-0.732861 -2.836797 0.354042
-0.732931 -2.856337 0.354076
-0.732999 -2.875875 0.354109
-0.733065 -2.895412 0.354141
-0.733130 -2.914947 0.354172
-0.733192 -2.934481 0.354202
-0.772864 -2.954045 0.373368
-0.772922 -2.973575 0.373396
-0.772979 -2.993105 0.373423
-0.773032 -3.012634 0.373449
-0.773084 -3.032162 0.373474
-0.773133 -3.051689 0.373497
-0.733565 -3.071191 0.354382
-0.733609 -3.090719 0.354404
-0.694033 -3.110225 0.335285
-0.694070 -3.129753 0.335303
-0.654485 -3.149264 0.316179
