0.629185 -1.638675 0.749439
0.629106 -1.653834 0.749345
0.629025 -1.668990 0.749249
0.628944 -1.684144 0.749152
0.628862 -1.699294 0.749054
0.600536 -1.714489 0.715315
0.628694 -1.729588 0.748855
0.600370 -1.744779 0.715117
0.600286 -1.759919 0.715017
0.600201 -1.775058 0.714916
0.628350 -1.790145 0.748445
0.628262 -1.805277 0.748340
0.628174 -1.820408 0.748235
0.628084 -1.835536 0.748128
0.627995 -1.850661 0.748021
0.627904 -1.865784 0.747914
0.627814 -1.880904 0.747806
0.627722 -1.896023 0.747697
0.627631 -1.911139 0.747588
0.599318 -1.926304 0.713864
0.599227 -1.941416 0.713755
0.599136 -1.956525 0.713647
0.599044 -1.971632 0.713538
0.598953 -1.986738 0.713429
0.627074 -2.001789 0.746924
0.626981 -2.016891 0.746814
0.626887 -2.031990 0.746702
0.626793 -2.047088 0.746590
0.626700 -2.062184 0.746479
0.626606 -2.077279 0.746367
0.626512 -2.092372 0.746256
0.626419 -2.107463 0.746144
0.626326 -2.122553 0.746033
0.626232 -2.137642 0.745922
0.626139 -2.152730 0.745811
0.682433 -2.167711 0.812864
0.907748 -2.182354 1.081243
0.963967 -2.197327 1.148207
0.963866 -2.212414 1.148086
0.935606 -2.227557 1.114426
0.907347 -2.242698 1.080765
0.879085 -2.257838 1.047102
0.794486 -2.273084 0.946334
0.568938 -2.288575 0.677677
0.540658 -2.303703 0.643992
0.540573 -2.318783 0.643891
0.540488 -2.333862 0.643790
0.540404 -2.348941 0.643690
0.540320 -2.364020 0.643590
0.097908 -0.618804 0.105592
0.097931 -0.634047 0.105616
0.127952 -0.649303 0.137994
0.127973 -0.664548 0.138016
0.157991 -0.679805 0.170390
0.158011 -0.695052 0.170411
0.158029 -0.710299 0.170431
0.158046 -0.725548 0.170450
0.188058 -0.740806 0.202817
0.188073 -0.756056 0.202833
0.188088 -0.771306 0.202849
0.158103 -0.786551 0.170510
0.158113 -0.801803 0.170522
0.158124 -0.817056 0.170533
0.188131 -0.832313 0.202895
0.158140 -0.847562 0.170550
0.158146 -0.862816 0.170557
0.158151 -0.878070 0.170562
0.158154 -0.893324 0.170566
0.158157 -0.908578 0.170569
0.158158 -0.923832 0.170570
0.158158 -0.939086 0.170570
0.158157 -0.954339 0.170569
0.128152 -0.969594 0.138210
0.128149 -0.984848 0.138206
0.128144 -1.000101 0.138200
0.128138 -1.015353 0.138194
0.158131 -1.030601 0.170542
0.128123 -1.045856 0.138178
0.158112 -1.061101 0.170521
0.188096 -1.076343 0.202858
0.218074 -1.091583 0.235188
0.278025 -1.106811 0.299844
0.337955 -1.122033 0.364477
0.337934 -1.137273 0.364454
0.367876 -1.152499 0.396747
0.367851 -1.167736 0.396720
0.397784 -1.182956 0.429001
0.427707 -1.198174 0.461273
0.427676 -1.213404 0.461240
0.457589 -1.228615 0.493500
0.457553 -1.243841 0.493462
0.487455 -1.259046 0.525710
0.487415 -1.274268 0.525667
0.517305 -1.289465 0.557902
0.517260 -1.304682 0.557854
0.547138 -1.319873 0.590077
0.547089 -1.335085 0.590025
0.576955 -1.350269 0.622234
0.576902 -1.365476 0.622176
0.606755 -1.380652 0.654372
0.606697 -1.395854 0.654310
0.606638 -1.411054 0.654246
0.606577 -1.426252 0.654181
0.636412 -1.441414 0.686357
0.636347 -1.456606 0.686287
0.636280 -1.471796 0.686215
0.666100 -1.486947 0.718375
0.666029 -1.502131 0.718298
0.665956 -1.517313 0.718220
0.665883 -1.532492 0.718141
0.665807 -1.547669 0.718059
0.665731 -1.562843 0.717977
0.665653 -1.578015 0.717893
0.635696 -1.593226 0.685585
0.635618 -1.608393 0.685500
0.635538 -1.623557 0.685414
0.635457 -1.638719 0.685327
0.635374 -1.653878 0.685238
0.665160 -1.668990 0.717362
0.665075 -1.684144 0.717269
0.664988 -1.699294 0.717175
0.664900 -1.714442 0.717080
0.664811 -1.729588 0.716985
0.664721 -1.744731 0.716888
0.664630 -1.759872 0.716790
0.664539 -1.775009 0.716691
0.664446 -1.790145 0.716592
0.664353 -1.805277 0.716491
0.664260 -1.820408 0.716391
0.664165 -1.835536 0.716289
0.664071 -1.850661 0.716187
0.663975 -1.865784 0.716084
0.663879 -1.880904 0.715980
0.663782 -1.896023 0.715876
0.663686 -1.911139 0.715771
0.663588 -1.926252 0.715666
0.663491 -1.941364 0.715561
0.663392 -1.956473 0.715455
0.663295 -1.971581 0.715350
0.663196 -1.986686 0.715243
0.663097 -2.001789 0.715136
0.662998 -2.016891 0.715030
0.662900 -2.031990 0.714924
0.662800 -2.047088 0.714816
0.662701 -2.062184 0.714710
0.662602 -2.077279 0.714603
0.662503 -2.092372 0.714496
0.662404 -2.107463 0.714389
0.662306 -2.122553 0.714283
0.662207 -2.137642 0.714177
0.662109 -2.152730 0.714071
0.721636 -2.167711 0.778270
0.959895 -2.182354 1.035227
1.019344 -2.197327 1.099341
1.019236 -2.212414 1.099225
1.019129 -2.227500 1.099110
0.989248 -2.242642 1.066884
0.959366 -2.257783 1.034657
0.899701 -2.272977 0.970309
0.631432 -2.288526 0.680986
0.571717 -2.303703 0.616585
0.571627 -2.318783 0.616488
0.571537 -2.333862 0.616391
0.571448 -2.348941 0.616295
0.720190 -2.393943 0.776710
0.720100 -2.409025 0.776613
0.103612 -0.618804 0.100002
0.103636 -0.634047 0.100025
0.135406 -0.649303 0.130688
0.135428 -0.664548 0.130709
0.167194 -0.679805 0.161369
0.167215 -0.695052 0.161389
0.198977 -0.710309 0.192044
0.198996 -0.725557 0.192062
0.199013 -0.740806 0.192079
0.167285 -0.756048 0.161457
0.167300 -0.771299 0.161470
0.199058 -0.786557 0.192122
0.167324 -0.801803 0.161494
0.167335 -0.817056 0.161504
0.167344 -0.832309 0.161513
0.167352 -0.847562 0.161521
0.167359 -0.862816 0.161527
0.167364 -0.878070 0.161532
0.167367 -0.893324 0.161536
0.167370 -0.908578 0.161539
0.167371 -0.923832 0.161539
0.135621 -0.939086 0.130896
0.135620 -0.954340 0.130895
0.135618 -0.969594 0.130892
0.135614 -0.984848 0.130889
0.135608 -1.000101 0.130883
0.135602 -1.015353 0.130877
0.135595 -1.030605 0.130870
0.103834 -1.045861 0.100216
0.135576 -1.061107 0.130852
0.199054 -1.076343 0.192118
0.230777 -1.091583 0.222736
0.230761 -1.106828 0.222720
0.325924 -1.122044 0.314568
0.389331 -1.137261 0.375765
0.389306 -1.152499 0.375741
0.420985 -1.167722 0.406316
0.452654 -1.182941 0.436882
0.452623 -1.198174 0.436852
0.484281 -1.213387 0.467407
0.484245 -1.228615 0.467372
0.515891 -1.243822 0.497915
0.515851 -1.259046 0.497876
0.547484 -1.274246 0.528408
0.547439 -1.289465 0.528365
0.579060 -1.304658 0.558883
0.579011 -1.319873 0.558836
0.610619 -1.335059 0.589342
0.610564 -1.350269 0.589290
0.610508 -1.365476 0.589236
0.642100 -1.380652 0.619727
0.642039 -1.395854 0.619668
0.673618 -1.411022 0.650147
0.673553 -1.426219 0.650084
0.673485 -1.441414 0.650019
0.705048 -1.456571 0.680481
0.704976 -1.471760 0.680412
0.704902 -1.486947 0.680341
0.704827 -1.502131 0.680268
0.704751 -1.517313 0.680194
0.704673 -1.532492 0.680119
0.704593 -1.547669 0.680042
0.704512 -1.562843 0.679964
0.704430 -1.578015 0.679885
0.735958 -1.593141 0.710315
0.735872 -1.608307 0.710231
0.735784 -1.623470 0.710147
0.735695 -1.638631 0.710061
0.735604 -1.653789 0.709973
0.735513 -1.668945 0.709885
0.735420 -1.684097 0.709796
0.735326 -1.699248 0.709705
0.735232 -1.714395 0.709614
0.735136 -1.729540 0.709521
0.735039 -1.744683 0.709428
0.734942 -1.759823 0.709334
0.734843 -1.774960 0.709239
0.734744 -1.790095 0.709143
0.734644 -1.805228 0.709046
0.734543 -1.820358 0.708949
0.734441 -1.835485 0.708851
0.734340 -1.850610 0.708752
0.734237 -1.865733 0.708653
0.734133 -1.880853 0.708554
0.734030 -1.895971 0.708453
0.702348 -1.911139 0.677875
0.702245 -1.926252 0.677776
0.702141 -1.941364 0.677676
0.733610 -1.956421 0.708048
0.733504 -1.971528 0.707946
0.733398 -1.986633 0.707844
0.733293 -2.001737 0.707742
0.733186 -2.016838 0.707639
0.733080 -2.031937 0.707536
0.701410 -2.047088 0.676971
0.701306 -2.062184 0.676870
0.701201 -2.077279 0.676768
0.732654 -2.092319 0.707126
0.732548 -2.107410 0.707024
0.732442 -2.122500 0.706921
0.732337 -2.137589 0.706819
0.732231 -2.152677 0.706717
0.763674 -2.167711 0.737065
1.015812 -2.182354 0.980418
1.078724 -2.197327 1.041137
1.078610 -2.212414 1.041027
1.078497 -2.227500 1.040918
1.078385 -2.242587 1.040810
1.046764 -2.257728 1.010291
0.983629 -2.272923 0.949355
0.920484 -2.288114 0.888411
0.668117 -2.303606 0.644837
0.604926 -2.318783 0.583848
0.604831 -2.333862 0.583757
0.636283 -2.348893 0.614112
0.636188 -2.363973 0.614021
0.107821 -0.618804 0.095448
0.107846 -0.634047 0.095470
0.107869 -0.649292 0.095491
0.140930 -0.664548 0.124757
0.173987 -0.679805 0.154021
0.174008 -0.695052 0.154040
0.207060 -0.710309 0.183299
0.207080 -0.725557 0.183317
0.207098 -0.740806 0.183333
0.207115 -0.756056 0.183348
0.174096 -0.771299 0.154118
0.207145 -0.786557 0.183374
0.207157 -0.801808 0.183385
0.174133 -0.817056 0.154150
0.174142 -0.832309 0.154159
0.174151 -0.847562 0.154166
0.174158 -0.862816 0.154172
0.174163 -0.878070 0.154177
0.174167 -0.893324 0.154180
0.174170 -0.908578 0.154183
0.174171 -0.923832 0.154184
0.141131 -0.939086 0.124935
0.141130 -0.954340 0.124934
0.141127 -0.969594 0.124932
0.141123 -0.984848 0.124929
0.141118 -1.000101 0.124924
0.141111 -1.015353 0.124918
0.141104 -1.030605 0.124911
0.174132 -1.045851 0.154150
0.174120 -1.061101 0.154139
0.207140 -1.076343 0.183370
0.240153 -1.091583 0.212594
0.306174 -1.106811 0.271039
0.339165 -1.122044 0.300244
0.405147 -1.137261 0.358655
0.438115 -1.152486 0.387840
0.438087 -1.167722 0.387815
0.471043 -1.182941 0.416989
0.503991 -1.198157 0.446155
0.503955 -1.213387 0.446124
0.536889 -1.228596 0.475279
0.536849 -1.243822 0.475243
0.569771 -1.259025 0.504387
0.569726 -1.274246 0.504347
0.602634 -1.289442 0.533479
0.602585 -1.304658 0.533435
0.635480 -1.319847 0.562556
0.635425 -1.335059 0.562507
0.635369 -1.350269 0.562457
0.668247 -1.365447 0.591563
0.668186 -1.380652 0.591508
0.701051 -1.395823 0.620602
0.700984 -1.411022 0.620543
0.700916 -1.426219 0.620483
0.733764 -1.441379 0.649561
0.733691 -1.456571 0.649496
0.733616 -1.471760 0.649430
0.766447 -1.486909 0.678494
0.766367 -1.502092 0.678423
0.766286 -1.517273 0.678351
0.766203 -1.532452 0.678278
0.766119 -1.547628 0.678203
0.766033 -1.562802 0.678127
0.765945 -1.577972 0.678050
0.765857 -1.593141 0.677971
0.765767 -1.608307 0.677892
0.765676 -1.623470 0.677811
0.765583 -1.638631 0.677729
0.765488 -1.653789 0.677645
0.765394 -1.668945 0.677561
0.765297 -1.684097 0.677476
0.765199 -1.699248 0.677389
0.765101 -1.714395 0.677302
0.797877 -1.729492 0.706317
0.797775 -1.744634 0.706227
0.797672 -1.759773 0.706135
0.797567 -1.774910 0.706043
0.797462 -1.790045 0.705950
0.797356 -1.805177 0.705856
0.797250 -1.820306 0.705762
0.797142 -1.835433 0.705666
0.797034 -1.850558 0.705571
0.764065 -1.865733 0.676385
0.763958 -1.880853 0.676290
0.763850 -1.895971 0.676194
0.763741 -1.911087 0.676099
0.763633 -1.926200 0.676002
0.763523 -1.941312 0.675905
0.763413 -1.956421 0.675808
0.763303 -1.971528 0.675711
0.763193 -1.986633 0.675613
0.763083 -2.001737 0.675516
0.762972 -2.016838 0.675418
0.762861 -2.031937 0.675319
0.762751 -2.047035 0.675222
0.762640 -2.062131 0.675124
0.762529 -2.077226 0.675025
0.762419 -2.092319 0.674928
0.762308 -2.107410 0.674830
0.762198 -2.122500 0.674732
0.762088 -2.137589 0.674635
0.761978 -2.152677 0.674538
0.761869 -2.167763 0.674441
0.827412 -2.182743 0.732463
1.122548 -2.197327 0.993730
1.155216 -2.212357 1.022650
1.155098 -2.227444 1.022545
1.154981 -2.242530 1.022441
1.154864 -2.257617 1.022338
1.121964 -2.272758 0.993213
1.023477 -2.288007 0.906028
0.728084 -2.303557 0.644533
0.662331 -2.318734 0.586325
0.662231 -2.333814 0.586237
0.662132 -2.348893 0.586149
0.662034 -2.363973 0.586062
0.694758 -2.379005 0.615031
0.858623 -2.408929 0.760092
0.858523 -2.424013 0.760003
0.112391 -0.618804 0.090023
0.112417 -0.634047 0.090043
0.146879 -0.649303 0.117646
0.146903 -0.664548 0.117666
0.181361 -0.679805 0.145266
0.181383 -0.695052 0.145284
0.215836 -0.710309 0.172880
0.215857 -0.725557 0.172896
0.215876 -0.740806 0.172911
0.181460 -0.756048 0.145345
0.181475 -0.771299 0.145357
0.181489 -0.786551 0.145368
0.215937 -0.801808 0.172961
0.181513 -0.817056 0.145388
0.181523 -0.832309 0.145396
0.181532 -0.847562 0.145403
0.181539 -0.862816 0.145408
0.181544 -0.878070 0.145413
0.181548 -0.893324 0.145416
0.181552 -0.908578 0.145419
0.181553 -0.923832 0.145419
0.181553 -0.939086 0.145419
0.181551 -0.954339 0.145418
0.147108 -0.969594 0.117830
0.147104 -0.984848 0.117827
0.147098 -1.000101 0.117822
0.147092 -1.015353 0.117817
0.147084 -1.030605 0.117811
0.147074 -1.045856 0.117803
0.181500 -1.061101 0.145377
0.250347 -1.076337 0.200522
0.250331 -1.091583 0.200509
0.319150 -1.106811 0.255632
0.387945 -1.122033 0.310734
0.422319 -1.137261 0.338267
0.456684 -1.152486 0.365793
0.456654 -1.167722 0.365769
0.491008 -1.182941 0.393285
0.525351 -1.198157 0.420794
0.525314 -1.213387 0.420764
0.559644 -1.228596 0.448262
0.559602 -1.243822 0.448228
0.593920 -1.259025 0.475715
0.593873 -1.274246 0.475678
0.628176 -1.289442 0.503154
0.628124 -1.304658 0.503112
0.662414 -1.319847 0.530578
0.662356 -1.335059 0.530532
0.696632 -1.350240 0.557986
0.696569 -1.365447 0.557936
0.730831 -1.380621 0.585378
0.730763 -1.395823 0.585324
0.730694 -1.411022 0.585268
0.764938 -1.426185 0.612697
0.764863 -1.441379 0.612637
0.799092 -1.456535 0.640054
0.799013 -1.471723 0.639990
0.798931 -1.486909 0.639925
0.798848 -1.502092 0.639858
0.798764 -1.517273 0.639791
0.798677 -1.532452 0.639722
0.832879 -1.547587 0.667116
0.832788 -1.562759 0.667043
0.832695 -1.577930 0.666969
0.832601 -1.593097 0.666894
0.832505 -1.608263 0.666817
0.832409 -1.623425 0.666740
0.832310 -1.638585 0.666661
0.832210 -1.653743 0.666581
0.832109 -1.668898 0.666500
0.832007 -1.684050 0.666418
0.831904 -1.699200 0.666335
0.831799 -1.714347 0.666251
0.831693 -1.729492 0.666167
0.831587 -1.744634 0.666081
0.831479 -1.759773 0.665995
0.831370 -1.774910 0.665908
0.831261 -1.790045 0.665820
0.831150 -1.805177 0.665732
0.831039 -1.820306 0.665643
0.830927 -1.835433 0.665553
0.830815 -1.850558 0.665463
0.830702 -1.865680 0.665372
0.830588 -1.880800 0.665281
0.830473 -1.895918 0.665189
0.830359 -1.911034 0.665098
0.830243 -1.926147 0.665005
0.830128 -1.941258 0.664913
0.830012 -1.956367 0.664820
0.795654 -1.971528 0.637300
0.795539 -1.986633 0.637208
0.795424 -2.001737 0.637116
0.795309 -2.016838 0.637024
0.795193 -2.031937 0.636931
0.829311 -2.046981 0.664258
0.829194 -2.062078 0.664165
0.829077 -2.077172 0.664071
0.828961 -2.092265 0.663978
0.828844 -2.107357 0.663884
0.828728 -2.122447 0.663791
0.828611 -2.137536 0.663698
0.828495 -2.152624 0.663605
0.828380 -2.167711 0.663513
0.828265 -2.182796 0.663420
0.862364 -2.197828 0.690733
1.238350 -2.212299 0.991889
1.238227 -2.227387 0.991790
1.238104 -2.242474 0.991692
1.237982 -2.257561 0.991594
1.237862 -2.272648 0.991498
1.169397 -2.287844 0.936659
1.100922 -2.303037 0.881812
0.724620 -2.318686 0.580403
0.690298 -2.333814 0.552913
0.690195 -2.348893 0.552830
0.690092 -2.363973 0.552748
0.689990 -2.379052 0.552666
0.116688 -0.618804 0.084378
0.116715 -0.634047 0.084398
0.152494 -0.649303 0.110270
0.152519 -0.664548 0.110288
0.188295 -0.679805 0.136158
0.188318 -0.695052 0.136175
0.224088 -0.710309 0.162040
0.224110 -0.725557 0.162056
0.224129 -0.740806 0.162070
0.188397 -0.756048 0.136232
0.188413 -0.771299 0.136243
0.188428 -0.786551 0.136254
0.224193 -0.801808 0.162116
0.224205 -0.817061 0.162125
0.224215 -0.832313 0.162132
0.188472 -0.847562 0.136286
0.188480 -0.862816 0.136292
0.188485 -0.878070 0.136296
0.188489 -0.893324 0.136299
0.188493 -0.908578 0.136301
0.188494 -0.923832 0.136302
0.152737 -0.939086 0.110446
0.188492 -0.954339 0.136301
0.152733 -0.969594 0.110443
0.188485 -0.984846 0.136295
0.152723 -1.000101 0.110435
0.152716 -1.015353 0.110430
0.152707 -1.030605 0.110424
0.188452 -1.045851 0.136271
0.188439 -1.061101 0.136262
0.224175 -1.076343 0.162103
0.295639 -1.091575 0.213780
0.331352 -1.106811 0.239604
0.438491 -1.122022 0.317078
0.438465 -1.137261 0.317059
0.474144 -1.152486 0.342858
0.474114 -1.167722 0.342836
0.509780 -1.182941 0.368627
0.545437 -1.198157 0.394411
0.545398 -1.213387 0.394383
0.581041 -1.228596 0.420157
0.580997 -1.243822 0.420125
0.616627 -1.259025 0.445889
0.616578 -1.274246 0.445854
0.652193 -1.289442 0.471607
0.687797 -1.304634 0.497353
0.687740 -1.319847 0.497311
0.723329 -1.335032 0.523046
0.723266 -1.350240 0.523001
0.758841 -1.365418 0.548725
0.758772 -1.380621 0.548676
0.794332 -1.395791 0.574390
0.794259 -1.410989 0.574336
0.794183 -1.426185 0.574282
0.829725 -1.441344 0.599982
0.829644 -1.456535 0.599924
0.829561 -1.471723 0.599864
0.865084 -1.486871 0.625551
0.864996 -1.502053 0.625487
0.864907 -1.517234 0.625423
0.864815 -1.532411 0.625357
0.864722 -1.547587 0.625289
0.864628 -1.562759 0.625221
0.864531 -1.577930 0.625151
0.864434 -1.593097 0.625081
0.864334 -1.608263 0.625009
0.864234 -1.623425 0.624936
0.864132 -1.638585 0.624862
0.864028 -1.653743 0.624787
0.863923 -1.668898 0.624711
0.863817 -1.684050 0.624635
0.863710 -1.699200 0.624557
0.863601 -1.714347 0.624478
0.863491 -1.729492 0.624399
0.863381 -1.744634 0.624319
0.863269 -1.759773 0.624238
0.863156 -1.774910 0.624157
0.863042 -1.790045 0.624074
0.862928 -1.805177 0.623992
0.862812 -1.820306 0.623908
0.862696 -1.835433 0.623824
0.862579 -1.850558 0.623739
0.862462 -1.865680 0.623655
0.862344 -1.880800 0.623569
0.862225 -1.895918 0.623483
0.862106 -1.911034 0.623397
0.861986 -1.926147 0.623311
0.861866 -1.941258 0.623224
0.861745 -1.956367 0.623137
0.861625 -1.971475 0.623049
0.861503 -1.986579 0.622962
0.861382 -2.001683 0.622874
0.861261 -2.016784 0.622786
0.861140 -2.031884 0.622699
0.861018 -2.046981 0.622611
0.860897 -2.062078 0.622523
0.860775 -2.077172 0.622435
0.860654 -2.092265 0.622347
0.860533 -2.107357 0.622260
0.860412 -2.122447 0.622173
0.860292 -2.137536 0.622085
0.895698 -2.152570 0.647688
0.895576 -2.167657 0.647600
0.895455 -2.182743 0.647512
0.895335 -2.197828 0.647426
0.930732 -2.212858 0.673022
1.321044 -2.227330 0.955260
1.320916 -2.242418 0.955167
1.320789 -2.257505 0.955076
1.320664 -2.272592 0.954985
1.320540 -2.287679 0.954895
1.213984 -2.302929 0.877844
1.142893 -2.318122 0.826437
0.752215 -2.333766 0.543934
0.752106 -2.348845 0.543856
0.751999 -2.363925 0.543778
0.787410 -2.378958 0.569384
0.751786 -2.394086 0.543624
0.120702 -0.618804 0.078529
0.120730 -0.634047 0.078547
0.157740 -0.649303 0.102626
0.157766 -0.664548 0.102643
0.194771 -0.679805 0.126719
0.194796 -0.695052 0.126735
0.231797 -0.710309 0.150808
0.231819 -0.725557 0.150822
0.231839 -0.740806 0.150836
0.194878 -0.756048 0.126789
0.194894 -0.771299 0.126799
0.194909 -0.786551 0.126809
0.194923 -0.801803 0.126818
0.231917 -0.817061 0.150887
0.231928 -0.832313 0.150894
0.194955 -0.847562 0.126839
0.194963 -0.862816 0.126844
0.194969 -0.878070 0.126848
0.194973 -0.893324 0.126851
0.194977 -0.908578 0.126853
0.194978 -0.923832 0.126854
0.194978 -0.939086 0.126854
0.194976 -0.954339 0.126852
0.157987 -0.969594 0.102787
0.194968 -0.984846 0.126847
0.157976 -1.000101 0.102780
0.157969 -1.015353 0.102775
0.194945 -1.030601 0.126832
0.194934 -1.045851 0.126825
0.231900 -1.061095 0.150876
0.268859 -1.076337 0.174921
0.305809 -1.091575 0.198961
0.342750 -1.106811 0.222995
0.453575 -1.122022 0.295098
0.453548 -1.137261 0.295080
0.490454 -1.152486 0.319092
0.527351 -1.167708 0.343097
0.527316 -1.182941 0.343074
0.564199 -1.198157 0.367071
0.564159 -1.213387 0.367045
0.601028 -1.228596 0.391032
0.600983 -1.243822 0.391002
0.637838 -1.259025 0.414981
0.674681 -1.274223 0.438951
0.674627 -1.289442 0.438916
0.711456 -1.304634 0.462877
0.748273 -1.319821 0.486830
0.748210 -1.335032 0.486789
0.748145 -1.350240 0.486747
0.784943 -1.365418 0.510688
0.821730 -1.380590 0.534622
0.821656 -1.395791 0.534574
0.858427 -1.410956 0.558497
0.858347 -1.426151 0.558445
0.858265 -1.441344 0.558392
0.858182 -1.456535 0.558338
0.858097 -1.471723 0.558282
0.894841 -1.486871 0.582189
0.894750 -1.502053 0.582129
0.894658 -1.517234 0.582069
0.894563 -1.532411 0.582008
0.931286 -1.547544 0.605900
0.931186 -1.562716 0.605835
0.931085 -1.577886 0.605769
0.930982 -1.593053 0.605702
0.930878 -1.608218 0.605634
0.930771 -1.623380 0.605565
0.930664 -1.638539 0.605495
0.930555 -1.653696 0.605424
0.930445 -1.668850 0.605353
0.930334 -1.684002 0.605280
0.930221 -1.699152 0.605207
0.930107 -1.714298 0.605132
0.929991 -1.729442 0.605057
0.929875 -1.744584 0.604982
0.929758 -1.759723 0.604905
0.929639 -1.774859 0.604828
0.929519 -1.789993 0.604750
0.929399 -1.805125 0.604672
0.929278 -1.820254 0.604593
0.929156 -1.835381 0.604514
0.929033 -1.850506 0.604434
0.928910 -1.865628 0.604354
0.928785 -1.880747 0.604273
0.928661 -1.895865 0.604192
0.928536 -1.910980 0.604110
0.928410 -1.926093 0.604029
0.928284 -1.941204 0.603946
0.928158 -1.956313 0.603864
0.928031 -1.971420 0.603782
0.927904 -1.986525 0.603699
0.927777 -2.001628 0.603617
0.927649 -2.016730 0.603534
0.927522 -2.031829 0.603451
0.927395 -2.046927 0.603368
0.927268 -2.062023 0.603285
0.927140 -2.077118 0.603203
0.927013 -2.092211 0.603120
0.926886 -2.107302 0.603037
0.926760 -2.122393 0.602955
0.926634 -2.137482 0.602873
0.926508 -2.152570 0.602791
0.926382 -2.167657 0.602709
0.926257 -2.182743 0.602628
0.926133 -2.197828 0.602547
0.926008 -2.212912 0.602466
0.999357 -2.227888 0.650187
1.439734 -2.242304 0.936699
1.439603 -2.257393 0.936613
1.439473 -2.272481 0.936529
1.402655 -2.287624 0.912575
1.402529 -2.302712 0.912493
1.292318 -2.317961 0.840789
1.218790 -2.333153 0.792951
0.851458 -2.348748 0.553963
0.814607 -2.363878 0.529988
0.814496 -2.378958 0.529915
0.814385 -2.394039 0.529843
0.124423 -0.618804 0.072490
0.124451 -0.634047 0.072506
0.162603 -0.649303 0.094734
0.162629 -0.664548 0.094749
0.200776 -0.679805 0.116974
0.200801 -0.695052 0.116988
0.238942 -0.710309 0.139210
0.238965 -0.725557 0.139223
0.238986 -0.740806 0.139235
0.239005 -0.756056 0.139246
0.200902 -0.771299 0.117047
0.200918 -0.786551 0.117056
0.200932 -0.801803 0.117065
0.239067 -0.817061 0.139282
0.239078 -0.832313 0.139289
0.239088 -0.847566 0.139295
0.200973 -0.862816 0.117089
0.200979 -0.878070 0.117092
0.200984 -0.893324 0.117095
0.200987 -0.908578 0.117097
0.200988 -0.923832 0.117097
0.200988 -0.939086 0.117097
0.162860 -0.954340 0.094883
0.200984 -0.969592 0.117095
0.200979 -0.984846 0.117092
0.162846 -1.000101 0.094875
0.162838 -1.015353 0.094871
0.162830 -1.030605 0.094866
0.200944 -1.045851 0.117071
0.239049 -1.061095 0.139272
0.277147 -1.076337 0.161468
0.277129 -1.091583 0.161458
0.391411 -1.106802 0.228039
0.467557 -1.122022 0.272403
0.467529 -1.137261 0.272386
0.505573 -1.152486 0.294551
0.543607 -1.167708 0.316710
0.581630 -1.182926 0.338863
0.581591 -1.198157 0.338840
0.619600 -1.213369 0.360984
0.619556 -1.228596 0.360958
0.657550 -1.243802 0.383094
0.657500 -1.259025 0.383065
0.695480 -1.274223 0.405192
0.733447 -1.289418 0.427312
0.733388 -1.304634 0.427278
0.771340 -1.319821 0.449389
0.771275 -1.335032 0.449351
0.809211 -1.350212 0.471453
0.847135 -1.365387 0.493548
0.847061 -1.380590 0.493505
0.884970 -1.395758 0.515591
0.884889 -1.410956 0.515544
0.922782 -1.426116 0.537620
0.922696 -1.441308 0.537570
0.922608 -1.456498 0.537519
0.922518 -1.471685 0.537467
0.960387 -1.486831 0.559530
0.960292 -1.502013 0.559474
0.960195 -1.517193 0.559417
0.960096 -1.532370 0.559360
0.959995 -1.547544 0.559301
0.959892 -1.562716 0.559241
0.959788 -1.577886 0.559180
0.959682 -1.593053 0.559119
0.959574 -1.608218 0.559056
0.959465 -1.623380 0.558992
0.959354 -1.638539 0.558928
0.959242 -1.653696 0.558862
0.997061 -1.668802 0.580896
0.996944 -1.683954 0.580828
0.996826 -1.699102 0.580759
0.996707 -1.714248 0.580690
0.996586 -1.729392 0.580619
0.996464 -1.744533 0.580548
0.996341 -1.759672 0.580477
0.996217 -1.774808 0.580405
0.996092 -1.789942 0.580332
0.995966 -1.805073 0.580258
0.995839 -1.820202 0.580184
0.995712 -1.835328 0.580110
0.995584 -1.850452 0.580035
0.995454 -1.865574 0.579960
0.995325 -1.880693 0.579884
0.995194 -1.895811 0.579808
0.995064 -1.910926 0.579732
0.994932 -1.926039 0.579656
0.994800 -1.941150 0.579579
0.994668 -1.956259 0.579502
0.994536 -1.971365 0.579425
0.994403 -1.986470 0.579348
0.994271 -2.001573 0.579270
0.994138 -2.016675 0.579193
0.994005 -2.031774 0.579116
0.993872 -2.046872 0.579038
0.993739 -2.061968 0.578961
0.993606 -2.077063 0.578883
0.993474 -2.092156 0.578806
0.993341 -2.107248 0.578729
0.993210 -2.122338 0.578652
0.993078 -2.137427 0.578575
0.992946 -2.152515 0.578499
0.992815 -2.167603 0.578422
0.992685 -2.182689 0.578347
0.992556 -2.197774 0.578271
0.992426 -2.212858 0.578196
0.992298 -2.227942 0.578121
1.067896 -2.242918 0.622165
1.521798 -2.257336 0.886612
1.521664 -2.272425 0.886534
1.521531 -2.287514 0.886457
1.521400 -2.302603 0.886380
1.483454 -2.317746 0.864273
1.407684 -2.332941 0.820128
1.331903 -2.348134 0.775978
0.839719 -2.363878 0.489227
0.877473 -2.378910 0.511223
0.839490 -2.394039 0.489094
0.877244 -2.409073 0.511090
-0.106661 -0.588322 -0.096637
-0.106688 -0.603562 -0.096661
-0.106714 -0.618804 -0.096685
-0.139435 -0.634059 -0.126331
-0.172154 -0.649315 -0.155975
-0.172177 -0.664559 -0.155996
-0.204891 -0.679816 -0.185636
-0.204913 -0.695062 -0.185656
-0.204934 -0.710309 -0.185674
-0.172260 -0.725548 -0.156071
-0.172277 -0.740798 -0.156086
-0.172294 -0.756048 -0.156101
-0.205003 -0.771306 -0.185737
-0.172322 -0.786551 -0.156127
-0.139634 -0.801797 -0.126511
-0.139644 -0.817051 -0.126520
-0.139653 -0.832304 -0.126529
-0.139661 -0.847559 -0.126536
-0.139668 -0.862813 -0.126542
-0.139673 -0.878068 -0.126547
-0.139677 -0.893322 -0.126550
-0.106975 -0.908576 -0.096921
-0.106976 -0.923831 -0.096922
-0.106977 -0.939086 -0.096923
-0.139680 -0.954340 -0.126553
-0.139678 -0.969594 -0.126551
-0.172374 -0.984846 -0.156174
-0.172368 -1.000098 -0.156169
-0.205056 -1.015346 -0.185785
-0.237737 -1.030592 -0.215395
-0.237727 -1.045841 -0.215385
-0.270399 -1.061083 -0.244987
-0.270385 -1.076329 -0.244974
-0.303047 -1.091567 -0.274566
-0.401032 -1.106782 -0.363343
-0.433667 -1.122011 -0.392910
-0.466292 -1.137237 -0.422470
-0.466265 -1.152473 -0.422445
-0.498879 -1.167693 -0.451994
-0.498848 -1.182926 -0.451966
-0.531450 -1.198140 -0.481504
-0.531413 -1.213369 -0.481470
-0.564003 -1.228577 -0.510997
-0.563962 -1.243802 -0.510960
-0.596538 -1.259003 -0.540475
-0.629105 -1.274200 -0.569981
-0.629056 -1.289418 -0.569937
-0.629006 -1.304634 -0.569891
-0.661556 -1.319821 -0.599383
-0.661500 -1.335032 -0.599332
-0.661443 -1.350240 -0.599280
-0.693977 -1.365418 -0.628756
-0.693914 -1.380621 -0.628700
-0.693851 -1.395823 -0.628642
-0.726367 -1.410989 -0.658103
-0.758874 -1.426151 -0.687554
-0.758802 -1.441344 -0.687489
-0.791294 -1.456498 -0.716928
-0.791217 -1.471685 -0.716858
-0.791139 -1.486871 -0.716787
-0.791059 -1.502053 -0.716714
-0.790977 -1.517234 -0.716640
-0.790893 -1.532411 -0.716564
-0.823360 -1.547544 -0.745980
-0.823272 -1.562716 -0.745900
-0.823183 -1.577886 -0.745819
-0.823091 -1.593053 -0.745737
-0.822999 -1.608218 -0.745653
-0.822905 -1.623380 -0.745568
-0.822810 -1.638539 -0.745482
-0.822714 -1.653696 -0.745395
-0.790077 -1.668898 -0.715825
-0.789980 -1.684050 -0.715737
-0.789882 -1.699200 -0.715648
-0.789783 -1.714347 -0.715558
-0.789682 -1.729492 -0.715467
-0.789581 -1.744634 -0.715376
-0.822009 -1.759723 -0.744756
-0.821904 -1.774859 -0.744661
-0.821798 -1.789993 -0.744565
-0.821692 -1.805125 -0.744468
-0.789061 -1.820306 -0.714905
-0.788955 -1.835433 -0.714808
-0.821368 -1.850506 -0.744175
-0.821259 -1.865628 -0.744077
-0.821149 -1.880747 -0.743977
-0.821039 -1.895865 -0.743877
-0.820929 -1.910980 -0.743777
-0.820818 -1.926093 -0.743676
-0.820706 -1.941204 -0.743575
-0.820594 -1.956313 -0.743474
-0.820482 -1.971420 -0.743372
-0.755354 -1.986633 -0.684365
-0.787753 -2.001683 -0.713720
-0.787642 -2.016784 -0.713619
-0.755026 -2.031937 -0.684068
-0.754917 -2.047035 -0.683969
-0.754808 -2.062131 -0.683870
-0.754698 -2.077226 -0.683770
-0.722085 -2.092372 -0.654223
-0.754479 -2.107410 -0.683572
-0.754370 -2.122500 -0.683474
-0.884217 -2.137372 -0.801118
-0.884104 -2.152461 -0.801015
-1.078800 -2.167209 -0.977413
-1.078682 -2.182297 -0.977306
-1.078564 -2.197384 -0.977200
-1.078447 -2.212471 -0.977094
-1.045875 -2.227613 -0.947583
-0.980839 -2.242809 -0.888659
-0.850847 -2.258108 -0.770884
-0.590833 -2.273592 -0.535306
-0.590735 -2.288672 -0.535217
-0.590638 -2.303751 -0.535129
-0.590541 -2.318830 -0.535041
-0.590444 -2.333909 -0.534954
-0.090408 -0.588309 -0.042278
-0.090440 -0.603550 -0.042293
-0.130441 -0.618804 -0.060999
-0.170438 -0.634059 -0.079703
-0.170468 -0.649303 -0.079717
-0.210460 -0.664559 -0.098419
-0.210487 -0.679805 -0.098432
-0.210514 -0.695052 -0.098444
-0.250500 -0.710309 -0.117143
-0.250524 -0.725557 -0.117154
-0.250546 -0.740806 -0.117165
-0.250566 -0.756056 -0.117174
-0.250585 -0.771306 -0.117183
-0.250602 -0.786557 -0.117191
-0.210651 -0.801803 -0.098508
-0.210664 -0.817056 -0.098515
-0.170704 -0.832304 -0.079828
-0.170714 -0.847559 -0.079832
-0.170722 -0.862813 -0.079836
-0.170729 -0.878068 -0.079839
-0.130757 -0.893320 -0.061147
-0.170737 -0.908577 -0.079843
-0.170739 -0.923832 -0.079844
-0.170739 -0.939086 -0.079844
-0.170737 -0.954340 -0.079843
-0.210705 -0.969592 -0.098534
-0.210700 -0.984846 -0.098531
-0.210693 -1.000098 -0.098528
-0.210685 -1.015350 -0.098524
-0.210675 -1.030601 -0.098520
-0.290584 -1.045841 -0.135888
-0.370466 -1.061076 -0.173244
-0.370448 -1.076322 -0.173236
-0.410367 -1.091558 -0.191903
-0.490200 -1.106782 -0.229236
-0.530090 -1.122011 -0.247891
-0.569970 -1.137237 -0.266540
-0.609839 -1.152459 -0.285184
-0.609802 -1.167693 -0.285167
-0.649657 -1.182910 -0.303805
-0.689499 -1.198123 -0.322436
-0.689454 -1.213351 -0.322415
-0.729280 -1.228557 -0.341040
-0.769096 -1.243760 -0.359659
-0.769041 -1.258981 -0.359633
-0.808840 -1.274177 -0.378245
-0.848626 -1.289368 -0.396850
-0.888400 -1.304555 -0.415450
-0.888331 -1.319767 -0.415418
-0.928088 -1.334946 -0.434010
-0.967832 -1.350122 -0.452596
-0.967754 -1.365325 -0.452559
-1.007481 -1.380493 -0.471137
-1.007396 -1.395691 -0.471097
-1.047107 -1.410851 -0.489667
-1.047016 -1.426044 -0.489625
-1.046923 -1.441234 -0.489581
-1.086612 -1.456384 -0.508142
-1.086514 -1.471569 -0.508096
-1.086412 -1.486751 -0.508048
-1.086309 -1.501932 -0.508000
-1.086204 -1.517110 -0.507951
-1.086097 -1.532285 -0.507900
-1.085987 -1.547458 -0.507849
-1.125642 -1.562584 -0.526394
-1.125527 -1.577751 -0.526340
-1.125411 -1.592916 -0.526286
-1.125293 -1.608079 -0.526230
-1.125173 -1.623239 -0.526174
-1.125052 -1.638396 -0.526117
-1.124928 -1.653551 -0.526060
-1.124804 -1.668704 -0.526002
-1.124677 -1.683854 -0.525942
-1.124550 -1.699002 -0.525883
-1.124421 -1.714147 -0.525823
-1.124291 -1.729289 -0.525762
-1.124159 -1.744429 -0.525700
-1.124027 -1.759567 -0.525638
-1.123893 -1.774702 -0.525576
-1.123759 -1.789835 -0.525513
-1.123622 -1.804966 -0.525449
-1.123486 -1.820094 -0.525385
-1.123348 -1.835220 -0.525321
-1.123210 -1.850343 -0.525256
-1.123071 -1.865464 -0.525191
-1.122932 -1.880584 -0.525126
-1.122792 -1.895700 -0.525061
-1.122651 -1.910815 -0.524995
-1.122510 -1.925928 -0.524929
-1.122368 -1.941038 -0.524863
-1.122226 -1.956147 -0.524796
-1.122084 -1.971253 -0.524729
-1.121941 -1.986358 -0.524663
-1.121799 -2.001461 -0.524596
-1.161364 -2.016505 -0.543099
-1.161220 -2.031605 -0.543031
-1.121371 -2.046759 -0.524396
-1.160932 -2.061799 -0.542896
-1.160789 -2.076894 -0.542829
-1.160645 -2.091987 -0.542762
-1.160502 -2.107079 -0.542695
-1.160359 -2.122170 -0.542628
-1.160216 -2.137260 -0.542562
-1.160075 -2.152349 -0.542496
-1.120239 -2.167493 -0.523867
-1.120100 -2.182579 -0.523802
-1.119962 -2.197665 -0.523737
-1.159514 -2.212695 -0.542233
-1.238743 -2.227669 -0.579284
-1.516254 -2.242361 -0.709059
-1.555761 -2.257393 -0.727534
-1.555621 -2.272481 -0.727468
-1.555482 -2.287569 -0.727403
-1.515696 -2.302712 -0.708798
-1.436252 -2.317907 -0.671647
-0.880581 -2.333717 -0.411794
-0.880458 -2.348797 -0.411736
-0.920039 -2.363829 -0.430245
-0.919917 -2.378910 -0.430188
0.127842 -0.618804 0.066274
0.127871 -0.634047 0.066289
0.167071 -0.649303 0.086611
0.167098 -0.664548 0.086625
0.206293 -0.679805 0.106944
0.206319 -0.695052 0.106957
0.245508 -0.710309 0.127273
0.245531 -0.725557 0.127285
0.245553 -0.740806 0.127297
0.245573 -0.756056 0.127307
0.206423 -0.771299 0.107011
0.206439 -0.786551 0.107020
0.206453 -0.801803 0.107027
0.245636 -0.817061 0.127340
0.245647 -0.832313 0.127346
0.206487 -0.847562 0.107045
0.206496 -0.862816 0.107049
0.245672 -0.878072 0.127358
0.206506 -0.893324 0.107055
0.206510 -0.908578 0.107057
0.206511 -0.923832 0.107057
0.206511 -0.939086 0.107057
0.206509 -0.954339 0.107056
0.167332 -0.969594 0.086746
0.206501 -0.984846 0.107052
0.167321 -1.000101 0.086740
0.206486 -1.015350 0.107044
0.206477 -1.030601 0.107039
0.206465 -1.045851 0.107033
0.245618 -1.061095 0.127330
0.284763 -1.076337 0.147623
0.323898 -1.091575 0.167911
0.402166 -1.106802 0.208486
0.480405 -1.122022 0.249046
0.519497 -1.137249 0.269312
0.519466 -1.152486 0.269295
0.558545 -1.167708 0.289554
0.597613 -1.182926 0.309808
0.597573 -1.198157 0.309787
0.636626 -1.213369 0.330032
0.675668 -1.228577 0.350272
0.675619 -1.243802 0.350247
0.714645 -1.259003 0.370478
0.753660 -1.274200 0.390703
0.753601 -1.289418 0.390673
0.792600 -1.304608 0.410890
0.831586 -1.319794 0.431101
0.831518 -1.335004 0.431066
0.870488 -1.350183 0.451268
0.870414 -1.365387 0.451230
0.909367 -1.380558 0.471424
0.948308 -1.395725 0.491611
0.948225 -1.410921 0.491568
0.948138 -1.426116 0.491523
0.987059 -1.441272 0.511700
0.986968 -1.456460 0.511652
0.986874 -1.471647 0.511604
1.025774 -1.486792 0.531770
1.025675 -1.501973 0.531718
1.025573 -1.517152 0.531666
1.025470 -1.532328 0.531612
1.025364 -1.547502 0.531557
1.025257 -1.562673 0.531502
1.025148 -1.577842 0.531445
1.025037 -1.593008 0.531388
1.024924 -1.608172 0.531329
1.063785 -1.623286 0.551475
1.063667 -1.638445 0.551414
1.063548 -1.653600 0.551352
1.063428 -1.668754 0.551290
1.063305 -1.683904 0.551226
1.063182 -1.699052 0.551163
1.063058 -1.714198 0.551098
1.062932 -1.729341 0.551033
1.101758 -1.744429 0.571160
1.101628 -1.759567 0.571093
1.101497 -1.774702 0.571025
1.101365 -1.789835 0.570957
1.101232 -1.804966 0.570888
1.101099 -1.820094 0.570819
1.100963 -1.835220 0.570749
1.100828 -1.850343 0.570678
1.100692 -1.865464 0.570608
1.100555 -1.880584 0.570537
1.100418 -1.895700 0.570466
1.061346 -1.910871 0.550211
1.061209 -1.925984 0.550140
1.061072 -1.941094 0.550069
1.060934 -1.956203 0.549997
1.060797 -1.971310 0.549926
1.060659 -1.986415 0.549855
1.060521 -2.001518 0.549783
1.060383 -2.016619 0.549711
1.060245 -2.031718 0.549640
1.060106 -2.046816 0.549568
1.059968 -2.061912 0.549496
1.059830 -2.077007 0.549425
1.059692 -2.092100 0.549353
1.098468 -2.107136 0.569455
1.098330 -2.122227 0.569383
1.098191 -2.137316 0.569311
1.098054 -2.152405 0.569240
1.097916 -2.167493 0.569169
1.058873 -2.182634 0.548929
1.058739 -2.197720 0.548859
1.058605 -2.212804 0.548790
1.058472 -2.227888 0.548721
1.058340 -2.242972 0.548652
1.136005 -2.257947 0.588914
1.602329 -2.272369 0.830661
1.602193 -2.287459 0.830590
1.602059 -2.302549 0.830521
1.601926 -2.317639 0.830452
1.601794 -2.332729 0.830384
1.523957 -2.347924 0.790032
1.018417 -2.363681 0.527956
0.940492 -2.378861 0.487559
0.940372 -2.393943 0.487497
0.131502 -0.618804 0.058677
0.131532 -0.634047 0.058691
0.171854 -0.649303 0.076683
0.212171 -0.664559 0.094673
0.212199 -0.679805 0.094685
0.252512 -0.695062 0.112673
0.252537 -0.710309 0.112684
0.252561 -0.725557 0.112695
0.252583 -0.740806 0.112705
0.252604 -0.756056 0.112714
0.252623 -0.771306 0.112722
0.252640 -0.786557 0.112730
0.252655 -0.801808 0.112737
0.252669 -0.817061 0.112743
0.252680 -0.832313 0.112748
0.212399 -0.847562 0.094774
0.212408 -0.862816 0.094778
0.212414 -0.878070 0.094781
0.212419 -0.893324 0.094783
0.212423 -0.908578 0.094785
0.212424 -0.923832 0.094785
0.172127 -0.939086 0.076805
0.172126 -0.954340 0.076804
0.172123 -0.969594 0.076803
0.172118 -0.984848 0.076800
0.172111 -1.000101 0.076797
0.212398 -1.015350 0.094774
0.172094 -1.030605 0.076790
0.131784 -1.045861 0.058803
0.172070 -1.061107 0.076779
0.212348 -1.076350 0.094751
0.333172 -1.091575 0.148664
0.413681 -1.106802 0.184588
0.413655 -1.122044 0.184576
0.534371 -1.137249 0.238441
0.574573 -1.152473 0.256379
0.614762 -1.167693 0.274312
0.614723 -1.182926 0.274294
0.654898 -1.198140 0.292221
0.695061 -1.213351 0.310142
0.695013 -1.228577 0.310120
0.735160 -1.243781 0.328034
0.775296 -1.258981 0.345943
0.775238 -1.274200 0.345917
0.815356 -1.289393 0.363818
0.855463 -1.304582 0.381714
0.855395 -1.319794 0.381684
0.895484 -1.334975 0.399572
0.895411 -1.350183 0.399539
0.935483 -1.365356 0.417420
0.975543 -1.380526 0.435295
0.975459 -1.395725 0.435258
0.975373 -1.410921 0.435219
1.015412 -1.426080 0.453085
1.015320 -1.441272 0.453044
1.055342 -1.456422 0.470902
1.055243 -1.471608 0.470858
1.095248 -1.486751 0.488708
1.135240 -1.501890 0.506553
1.135133 -1.517067 0.506505
1.135023 -1.532242 0.506456
1.094820 -1.547458 0.488517
1.134797 -1.562584 0.506355
1.134681 -1.577751 0.506304
1.134564 -1.592916 0.506252
1.134445 -1.608079 0.506198
1.174399 -1.623190 0.524026
1.174275 -1.638347 0.523971
1.134078 -1.653551 0.506034
1.133952 -1.668704 0.505978
1.173893 -1.683803 0.523800
1.173763 -1.698950 0.523742
1.173631 -1.714095 0.523684
1.173498 -1.729237 0.523624
1.173364 -1.744376 0.523564
1.173228 -1.759514 0.523504
1.173092 -1.774648 0.523443
1.172954 -1.789781 0.523381
1.172816 -1.804911 0.523320
1.172676 -1.820039 0.523257
1.172536 -1.835164 0.523195
1.172395 -1.850288 0.523132
1.172253 -1.865409 0.523069
1.172111 -1.880527 0.523005
1.171968 -1.895644 0.522941
1.171824 -1.910758 0.522877
1.171680 -1.925871 0.522813
1.171536 -1.940981 0.522749
1.171391 -1.956090 0.522684
1.171246 -1.971196 0.522619
1.171101 -1.986301 0.522554
1.170956 -2.001404 0.522490
1.170810 -2.016505 0.522425
1.130635 -2.031662 0.504498
1.130491 -2.046759 0.504434
1.130347 -2.061856 0.504370
1.130204 -2.076950 0.504306
1.130061 -2.092044 0.504242
1.129918 -2.107136 0.504178
1.129776 -2.122227 0.504115
1.169653 -2.137260 0.521908
1.169510 -2.152349 0.521845
1.129350 -2.167493 0.503925
1.129210 -2.182579 0.503862
1.129070 -2.197665 0.503800
1.128931 -2.212750 0.503738
1.168805 -2.227779 0.521530
1.168667 -2.242864 0.521468
1.168530 -2.257947 0.521407
1.248400 -2.272923 0.557046
1.688027 -2.287404 0.753211
1.687889 -2.302495 0.753149
1.687752 -2.317585 0.753088
1.687618 -2.332676 0.753029
1.647523 -2.347820 0.735138
1.567457 -2.363014 0.699412
1.087460 -2.378713 0.485233
1.007313 -2.393894 0.449471
1.007190 -2.408977 0.449416
1.007069 -2.424060 0.449362
1.006950 -2.439145 0.449309
0.133741 -0.618804 0.053376
0.174750 -0.634059 0.069743
0.174781 -0.649303 0.069755
0.174809 -0.664548 0.069766
0.215813 -0.679805 0.086131
0.256812 -0.695062 0.102494
0.256838 -0.710309 0.102504
0.256862 -0.725557 0.102514
0.256885 -0.740806 0.102523
0.256905 -0.756056 0.102531
0.256925 -0.771306 0.102539
0.256942 -0.786557 0.102546
0.215981 -0.801803 0.086198
0.256972 -0.817061 0.102557
0.256983 -0.832313 0.102562
0.216016 -0.847562 0.086212
0.257003 -0.862819 0.102570
0.216031 -0.878070 0.086218
0.216036 -0.893324 0.086220
0.216040 -0.908578 0.086222
0.216041 -0.923832 0.086222
0.216041 -0.939086 0.086222
0.216039 -0.954339 0.086221
0.175054 -0.969594 0.069864
0.216031 -0.984846 0.086218
0.216024 -1.000098 0.086215
0.175034 -1.015353 0.069856
0.134039 -1.030609 0.053495
0.134028 -1.045861 0.053491
0.175000 -1.061107 0.069843
0.215964 -1.076350 0.086191
0.379800 -1.091567 0.151578
0.420726 -1.106802 0.167912
0.420700 -1.122044 0.167901
0.543471 -1.137249 0.216900
0.584357 -1.152473 0.233217
0.625231 -1.167693 0.249530
0.625192 -1.182926 0.249514
0.666051 -1.198140 0.265821
0.706898 -1.213351 0.282123
0.747732 -1.228557 0.298420
0.747680 -1.243781 0.298399
0.788499 -1.258981 0.314690
0.829304 -1.274177 0.330976
0.829242 -1.289393 0.330951
0.870031 -1.304582 0.347230
0.910807 -1.319767 0.363503
0.910734 -1.334975 0.363474
0.951493 -1.350152 0.379741
0.992239 -1.365325 0.396003
0.992156 -1.380526 0.395970
1.032885 -1.395691 0.412225
1.032795 -1.410887 0.412189
1.073507 -1.426044 0.428437
1.073411 -1.441234 0.428399
1.114105 -1.456384 0.444640
1.114004 -1.471569 0.444599
1.113900 -1.486751 0.444558
1.154573 -1.501890 0.460790
1.154463 -1.517067 0.460747
1.154352 -1.532242 0.460702
1.154238 -1.547414 0.460657
1.194887 -1.562538 0.476880
1.194768 -1.577705 0.476832
1.194647 -1.592869 0.476784
1.194524 -1.608031 0.476735
1.194399 -1.623190 0.476685
1.194273 -1.638347 0.476635
1.194145 -1.653502 0.476584
1.194015 -1.668654 0.476532
1.193884 -1.683803 0.476480
1.193752 -1.698950 0.476427
1.193618 -1.714095 0.476373
1.193482 -1.729237 0.476319
1.193346 -1.744376 0.476265
1.193208 -1.759514 0.476210
1.193070 -1.774648 0.476154
1.192929 -1.789781 0.476099
1.233518 -1.804856 0.492298
1.233375 -1.819983 0.492240
1.233231 -1.835108 0.492183
1.233086 -1.850231 0.492125
1.232940 -1.865352 0.492067
1.232793 -1.880471 0.492008
1.232646 -1.895587 0.491949
1.232498 -1.910701 0.491890
1.191633 -1.925871 0.475581
1.191487 -1.940981 0.475523
1.191339 -1.956090 0.475464
1.191192 -1.971196 0.475405
1.191044 -1.986301 0.475346
1.190896 -2.001404 0.475287
1.190748 -2.016505 0.475228
1.190600 -2.031605 0.475169
1.190453 -2.046702 0.475110
1.190305 -2.061799 0.475051
1.190158 -2.076894 0.474992
1.190011 -2.091987 0.474934
1.189864 -2.107079 0.474875
1.189717 -2.122170 0.474817
1.189571 -2.137260 0.474758
1.189426 -2.152349 0.474700
1.189282 -2.167436 0.474643
1.189138 -2.182523 0.474585
1.188994 -2.197609 0.474528
1.188851 -2.212695 0.474471
1.188709 -2.227779 0.474414
1.188569 -2.242864 0.474358
1.188429 -2.257947 0.474302
1.228977 -2.272977 0.490485
1.269520 -2.288007 0.506666
1.716633 -2.302495 0.685109
1.716494 -2.317585 0.685053
1.716358 -2.332676 0.684999
1.716223 -2.347768 0.684945
1.716089 -2.362859 0.684892
1.105979 -2.378713 0.441397
1.024467 -2.393894 0.408865
1.024342 -2.408977 0.408815
1.024219 -2.424060 0.408766
1.064789 -2.439098 0.424958
0.136208 -0.618804 0.046725
0.177973 -0.634059 0.061052
0.178004 -0.649303 0.061063
0.219764 -0.664559 0.075388
0.219793 -0.679805 0.075398
0.261548 -0.695062 0.089722
0.261574 -0.710309 0.089731
0.261599 -0.725557 0.089740
0.261622 -0.740806 0.089747
0.261643 -0.756056 0.089755
0.303389 -0.771313 0.104075
0.303407 -0.786564 0.104081
0.303423 -0.801814 0.104087
0.261711 -0.817061 0.089778
0.261723 -0.832313 0.089782
0.261734 -0.847566 0.089786
0.220009 -0.862816 0.075472
0.220015 -0.878070 0.075475
0.220020 -0.893324 0.075476
0.220024 -0.908578 0.075478
0.220025 -0.923832 0.075478
0.220025 -0.939086 0.075478
0.220023 -0.954339 0.075477
0.220020 -0.969592 0.075476
0.220015 -0.984846 0.075474
0.220008 -1.000098 0.075472
0.178262 -1.015353 0.061151
0.178252 -1.030605 0.061148
0.178241 -1.045856 0.061144
0.178227 -1.061107 0.061140
0.303398 -1.076337 0.104078
0.386804 -1.091567 0.132690
0.428484 -1.106802 0.146988
0.470154 -1.122033 0.161283
0.553494 -1.137249 0.189872
0.595133 -1.152473 0.204156
0.636761 -1.167693 0.218436
0.636721 -1.182926 0.218422
0.678334 -1.198140 0.232697
0.719934 -1.213351 0.246968
0.719884 -1.228577 0.246951
0.761468 -1.243781 0.261216
0.803040 -1.258981 0.275477
0.844598 -1.274177 0.289733
0.844534 -1.289393 0.289711
0.886076 -1.304582 0.303962
0.927603 -1.319767 0.318207
0.927529 -1.334975 0.318182
0.969040 -1.350152 0.332422
1.010537 -1.365325 0.346657
1.010453 -1.380526 0.346628
1.051932 -1.395691 0.360858
1.051841 -1.410887 0.360826
1.093304 -1.426044 0.375050
1.134751 -1.441196 0.389268
1.134651 -1.456384 0.389233
1.176081 -1.471529 0.403446
1.175974 -1.486710 0.403409
1.175865 -1.501890 0.403372
1.175753 -1.517067 0.403333
1.175640 -1.532242 0.403294
1.175524 -1.547414 0.403255
1.216922 -1.562538 0.417456
1.216801 -1.577705 0.417414
1.216678 -1.592869 0.417372
1.216552 -1.608031 0.417329
1.216425 -1.623190 0.417286
1.216297 -1.638347 0.417241
1.216166 -1.653502 0.417197
1.216035 -1.668654 0.417152
1.215901 -1.683803 0.417106
1.215766 -1.698950 0.417060
1.215630 -1.714095 0.417013
1.215491 -1.729237 0.416965
1.215352 -1.744376 0.416918
1.215212 -1.759514 0.416869
1.215071 -1.774648 0.416821
1.214929 -1.789781 0.416772
1.214785 -1.804911 0.416723
1.214640 -1.820039 0.416673
1.214495 -1.835164 0.416623
1.214349 -1.850288 0.416573
1.214202 -1.865409 0.416523
1.214054 -1.880527 0.416472
1.213907 -1.895644 0.416422
1.255227 -1.910701 0.430596
1.255076 -1.925814 0.430544
1.254925 -1.940924 0.430493
1.254773 -1.956032 0.430441
1.254622 -1.971139 0.430389
1.254469 -1.986243 0.430336
1.212858 -2.001404 0.416062
1.212707 -2.016505 0.416010
1.212556 -2.031605 0.415958
1.212406 -2.046702 0.415907
1.212256 -2.061799 0.415855
1.212106 -2.076894 0.415804
1.211956 -2.091987 0.415752
1.211806 -2.107079 0.415701
1.211657 -2.122170 0.415650
1.211509 -2.137260 0.415599
1.211361 -2.152349 0.415548
1.211213 -2.167436 0.415498
1.211067 -2.182523 0.415447
1.210921 -2.197609 0.415397
1.210775 -2.212695 0.415347
1.210631 -2.227779 0.415298
1.210487 -2.242864 0.415249
1.251783 -2.257893 0.429415
1.293073 -2.272923 0.443579
1.665647 -2.287514 0.571388
1.748290 -2.302495 0.599738
1.748148 -2.317585 0.599689
1.748009 -2.332676 0.599642
1.747872 -2.347768 0.599594
1.747736 -2.362859 0.599548
1.747603 -2.377952 0.599502
0.138344 -0.618804 0.039960
0.180763 -0.634059 0.052213
0.180795 -0.649303 0.052223
0.223210 -0.664559 0.064474
0.223239 -0.679805 0.064482
0.265649 -0.695062 0.076733
0.265676 -0.710309 0.076740
0.265701 -0.725557 0.076748
0.308103 -0.740814 0.088995
0.308125 -0.756063 0.089002
0.308146 -0.771313 0.089008
0.308164 -0.786564 0.089013
0.265800 -0.801808 0.076776
0.265814 -0.817061 0.076780
0.265827 -0.832313 0.076784
0.265838 -0.847566 0.076787
0.265847 -0.862819 0.076790
0.265853 -0.878072 0.076791
0.223470 -0.893324 0.064549
0.223474 -0.908578 0.064550
0.223476 -0.923832 0.064551
0.223476 -0.939086 0.064551
0.223474 -0.954339 0.064550
0.223470 -0.969592 0.064549
0.181073 -0.984848 0.052303
0.181066 -1.000101 0.052301
0.181057 -1.015353 0.052298
0.181048 -1.030605 0.052295
0.138640 -1.045861 0.040046
0.223411 -1.061101 0.064532
0.265778 -1.076343 0.076770
0.392869 -1.091567 0.113480
0.435203 -1.106802 0.125708
0.519869 -1.122022 0.150164
0.562173 -1.137249 0.162383
0.604466 -1.152473 0.174599
0.646746 -1.167693 0.186812
0.689015 -1.182910 0.199021
0.688970 -1.198140 0.199009
0.731223 -1.213351 0.211213
0.773462 -1.228557 0.223414
0.773408 -1.243781 0.223398
0.815632 -1.258981 0.235595
0.857841 -1.274177 0.247787
0.857777 -1.289393 0.247768
0.899970 -1.304582 0.259956
0.942149 -1.319767 0.272139
0.984315 -1.334946 0.284319
0.984235 -1.350152 0.284296
1.026383 -1.365325 0.296470
1.026297 -1.380526 0.296445
1.068427 -1.395691 0.308615
1.068335 -1.410887 0.308588
1.110447 -1.426044 0.320752
1.152545 -1.441196 0.332912
1.152443 -1.456384 0.332882
1.152338 -1.471569 0.332852
1.152230 -1.486751 0.332821
1.194303 -1.501890 0.344974
1.194190 -1.517067 0.344941
1.194074 -1.532242 0.344908
1.193957 -1.547414 0.344874
1.193837 -1.562584 0.344839
1.193715 -1.577751 0.344804
1.193592 -1.592916 0.344768
1.193466 -1.608079 0.344732
1.193340 -1.623239 0.344695
1.193211 -1.638396 0.344658
1.193080 -1.653551 0.344620
1.192948 -1.668704 0.344582
1.192814 -1.683854 0.344543
1.192678 -1.699002 0.344504
1.192542 -1.714147 0.344465
1.192404 -1.729289 0.344425
1.234410 -1.744376 0.356558
1.234267 -1.759514 0.356517
1.234124 -1.774648 0.356476
1.233979 -1.789781 0.356434
1.233834 -1.804911 0.356392
1.233687 -1.820039 0.356350
1.233539 -1.835164 0.356307
1.233391 -1.850288 0.356264
1.233242 -1.865409 0.356221
1.233092 -1.880527 0.356178
1.232941 -1.895644 0.356134
1.232790 -1.910758 0.356091
1.232638 -1.925871 0.356047
1.232487 -1.940981 0.356003
1.232334 -1.956090 0.355959
1.232182 -1.971196 0.355915
1.232029 -1.986301 0.355871
1.231876 -2.001404 0.355827
1.231723 -2.016505 0.355782
1.231570 -2.031605 0.355738
1.231417 -2.046702 0.355694
1.231265 -2.061799 0.355650
1.231112 -2.076894 0.355606
1.230960 -2.091987 0.355562
1.230808 -2.107079 0.355518
1.230657 -2.122170 0.355474
1.230506 -2.137260 0.355431
1.230356 -2.152349 0.355387
1.230206 -2.167436 0.355344
1.272150 -2.182467 0.367460
1.229909 -2.197609 0.355258
1.271852 -2.212639 0.367374
1.271704 -2.227724 0.367331
1.271557 -2.242809 0.367289
1.229324 -2.257947 0.355089
1.313350 -2.272923 0.379360
1.691765 -2.287514 0.488665
1.775704 -2.302495 0.512911
