0.386172 -1.451411 -1.220308
0.386172 -1.463950 -1.220308
0.386172 -1.476489 -1.220308
0.386172 -1.482759 -1.220308
0.386172 -1.495298 -1.220308
0.492775 -1.507837 -1.557176
0.492775 -1.520376 -1.557176
0.519426 -1.532915 -1.641393
0.519426 -1.545455 -1.641393
0.519426 -1.557994 -1.641393
0.519426 -1.570533 -1.641393
0.506101 -1.583072 -1.599285
0.492775 -1.589342 -1.557176
0.479450 -1.601881 -1.515068
0.022192 -0.253919 -0.084591
0.033400 -0.266458 -0.127312
0.033400 -0.278997 -0.127312
0.044608 -0.291536 -0.170032
0.044608 -0.297806 -0.170032
0.044608 -0.310345 -0.170032
0.055816 -0.322884 -0.212753
0.055816 -0.335423 -0.212753
0.067023 -0.347962 -0.255474
0.067023 -0.360502 -0.255474
0.067023 -0.373041 -0.255474
0.055816 -0.385580 -0.212753
0.055816 -0.398119 -0.212753
0.044608 -0.404389 -0.170032
0.044608 -0.416928 -0.170032
0.044608 -0.429467 -0.170032
0.044608 -0.442006 -0.170032
0.044608 -0.454545 -0.170032
0.033400 -0.467085 -0.127312
0.033400 -0.479624 -0.127312
0.033400 -0.492163 -0.127312
0.033400 -0.504702 -0.127312
0.033400 -0.510972 -0.127312
0.033400 -0.523511 -0.127312
0.044608 -0.536050 -0.170032
0.044608 -0.548589 -0.170032
0.055816 -0.561128 -0.212753
0.055816 -0.573668 -0.212753
0.055816 -0.586207 -0.212753
0.078231 -0.598746 -0.298195
0.089439 -0.611285 -0.340916
0.089439 -0.617555 -0.340916
0.100647 -0.630094 -0.383637
0.111854 -0.642633 -0.426358
0.134270 -0.655172 -0.511800
0.145478 -0.667712 -0.554521
0.156686 -0.680251 -0.597242
0.156686 -0.692790 -0.597242
0.167893 -0.705329 -0.639963
0.179101 -0.717868 -0.682684
0.190309 -0.724138 -0.725405
0.190309 -0.736677 -0.725405
0.201517 -0.749216 -0.768126
0.201517 -0.761755 -0.768126
0.212724 -0.774295 -0.810847
0.223932 -0.786834 -0.853568
0.223932 -0.799373 -0.853568
0.235140 -0.811912 -0.896289
0.246348 -0.824451 -0.939010
0.246348 -0.830721 -0.939010
0.257556 -0.843260 -0.981731
0.268763 -0.855799 -1.024451
0.268763 -0.868339 -1.024451
0.279971 -0.880878 -1.067173
0.279971 -0.893417 -1.067173
0.279971 -0.905956 -1.067173
0.291179 -0.918495 -1.109894
0.291179 -0.931034 -1.109894
0.291179 -0.937304 -1.109894
0.291179 -0.949843 -1.109894
0.302387 -0.962382 -1.152614
0.302387 -0.974922 -1.152614
0.302387 -0.987461 -1.152614
0.302387 -1.000000 -1.152614
0.302387 -1.012539 -1.152614
0.302387 -1.025078 -1.152614
0.302387 -1.037617 -1.152614
0.302387 -1.043887 -1.152614
0.302387 -1.056426 -1.152614
0.302387 -1.068965 -1.152614
0.302387 -1.081505 -1.152614
0.302387 -1.094044 -1.152614
0.302387 -1.106583 -1.152614
0.302387 -1.119122 -1.152614
0.302387 -1.131661 -1.152614
0.302387 -1.144201 -1.152614
0.302387 -1.150470 -1.152614
0.302387 -1.163009 -1.152614
0.302387 -1.175549 -1.152614
0.302387 -1.188088 -1.152614
0.302387 -1.200627 -1.152614
0.302387 -1.213166 -1.152614
0.313595 -1.225705 -1.195335
0.313595 -1.238245 -1.195335
0.313595 -1.250784 -1.195335
0.313595 -1.257053 -1.195335
0.313595 -1.269593 -1.195335
0.313595 -1.282132 -1.195335
0.313595 -1.294671 -1.195335
0.313595 -1.307210 -1.195335
0.313595 -1.319749 -1.195335
0.313595 -1.332289 -1.195335
0.313595 -1.344828 -1.195335
0.313595 -1.357367 -1.195335
0.313595 -1.369906 -1.195335
0.313595 -1.376176 -1.195335
0.313595 -1.388715 -1.195335
0.313595 -1.401254 -1.195335
0.313595 -1.413793 -1.195335
0.313595 -1.426332 -1.195335
0.313595 -1.438871 -1.195335
0.313595 -1.451411 -1.195335
0.313595 -1.463950 -1.195335
0.313595 -1.476489 -1.195335
0.313595 -1.482759 -1.195335
0.313595 -1.495298 -1.195335
0.313595 -1.507837 -1.195335
0.414465 -1.520376 -1.579824
0.436880 -1.532915 -1.665266
0.436880 -1.545455 -1.665266
0.436880 -1.557994 -1.665266
0.436880 -1.570533 -1.665266
0.425672 -1.583072 -1.622545
0.414465 -1.589342 -1.579824
0.414465 -1.601881 -1.579824
0.017944 -0.253919 -0.085593
0.027006 -0.266458 -0.128819
0.027006 -0.278997 -0.128819
0.036068 -0.291536 -0.172046
0.036068 -0.297806 -0.172046
0.036068 -0.310345 -0.172046
0.045131 -0.322884 -0.215273
0.045131 -0.335423 -0.215273
0.045131 -0.347962 -0.215273
0.054193 -0.360502 -0.258500
0.054193 -0.373041 -0.258500
0.054193 -0.385580 -0.258500
0.054193 -0.398119 -0.258500
0.045131 -0.404389 -0.215273
0.027006 -0.416928 -0.128819
0.027006 -0.429467 -0.128819
0.027006 -0.442006 -0.128819
0.027006 -0.454545 -0.128819
0.027006 -0.467085 -0.128819
0.027006 -0.479624 -0.128819
0.027006 -0.492163 -0.128819
0.027006 -0.504702 -0.128819
0.027006 -0.510972 -0.128819
0.027006 -0.523511 -0.128819
0.036068 -0.536050 -0.172046
0.036068 -0.548589 -0.172046
0.045131 -0.561128 -0.215273
0.045131 -0.573668 -0.215273
0.054193 -0.586207 -0.258500
0.063255 -0.598746 -0.301727
0.063255 -0.611285 -0.301727
0.072317 -0.617555 -0.344954
0.081380 -0.630094 -0.388181
0.099504 -0.642633 -0.474635
0.108566 -0.655172 -0.517862
0.117629 -0.667712 -0.561089
0.126691 -0.680251 -0.604316
0.126691 -0.692790 -0.604316
0.135753 -0.705329 -0.647543
0.144816 -0.717868 -0.690770
0.144816 -0.724138 -0.690770
0.153878 -0.736677 -0.733997
0.162940 -0.749216 -0.777224
0.162940 -0.761755 -0.777224
0.172002 -0.774295 -0.820451
0.172002 -0.786834 -0.820451
0.181065 -0.799373 -0.863678
0.190127 -0.811912 -0.906905
0.199189 -0.824451 -0.950132
0.199189 -0.830721 -0.950132
0.208251 -0.843260 -0.993359
0.208251 -0.855799 -0.993359
0.217314 -0.868339 -1.036586
0.217314 -0.880878 -1.036586
0.226376 -0.893417 -1.079813
0.226376 -0.905956 -1.079813
0.226376 -0.918495 -1.079813
0.226376 -0.931034 -1.079813
0.235438 -0.937304 -1.123039
0.235438 -0.949843 -1.123039
0.235438 -0.962382 -1.123039
0.235438 -0.974922 -1.123039
0.235438 -0.987461 -1.123039
0.235438 -1.000000 -1.123039
0.235438 -1.012539 -1.123039
0.235438 -1.025078 -1.123039
0.235438 -1.037617 -1.123039
0.235438 -1.043887 -1.123039
0.235438 -1.056426 -1.123039
0.235438 -1.068965 -1.123039
0.235438 -1.081505 -1.123039
0.235438 -1.094044 -1.123039
0.235438 -1.106583 -1.123039
0.235438 -1.119122 -1.123039
0.235438 -1.131661 -1.123039
0.235438 -1.144201 -1.123039
0.235438 -1.150470 -1.123039
0.235438 -1.163009 -1.123039
0.235438 -1.175549 -1.123039
0.235438 -1.188088 -1.123039
0.235438 -1.200627 -1.123039
0.235438 -1.213166 -1.123039
0.235438 -1.225705 -1.123039
0.235438 -1.238245 -1.123039
0.235438 -1.250784 -1.123039
0.235438 -1.257053 -1.123039
0.235438 -1.269593 -1.123039
0.235438 -1.282132 -1.123039
0.235438 -1.294671 -1.123039
0.235438 -1.307210 -1.123039
0.235438 -1.319749 -1.123039
0.235438 -1.332289 -1.123039
0.235438 -1.344828 -1.123039
0.235438 -1.357367 -1.123039
0.235438 -1.369906 -1.123039
0.235438 -1.376176 -1.123039
0.235438 -1.388715 -1.123039
0.235438 -1.401254 -1.123039
0.235438 -1.413793 -1.123039
0.235438 -1.426332 -1.123039
0.235438 -1.438871 -1.123039
0.235438 -1.451411 -1.123039
0.235438 -1.463950 -1.123039
0.235438 -1.476489 -1.123039
0.235438 -1.482759 -1.123039
0.235438 -1.495298 -1.123039
0.244500 -1.507837 -1.166266
0.326061 -1.520376 -1.555309
0.344185 -1.532915 -1.641763
0.344185 -1.545455 -1.641763
0.344185 -1.557994 -1.641763
0.344185 -1.570533 -1.641763
0.335123 -1.583072 -1.598536
0.335123 -1.589342 -1.598536
0.013382 -0.253919 -0.086423
0.020140 -0.266458 -0.130070
0.020140 -0.278997 -0.130070
0.020140 -0.291536 -0.130070
0.026899 -0.297806 -0.173716
0.026899 -0.310345 -0.173716
0.033657 -0.322884 -0.217363
0.033657 -0.335423 -0.217363
0.033657 -0.347962 -0.217363
0.040416 -0.360502 -0.261009
0.033657 -0.373041 -0.217363
0.033657 -0.385580 -0.217363
0.033657 -0.398119 -0.217363
0.026899 -0.404389 -0.173716
0.026899 -0.416928 -0.173716
0.020140 -0.429467 -0.130070
0.020140 -0.442006 -0.130070
0.020140 -0.454545 -0.130070
0.020140 -0.467085 -0.130070
0.020140 -0.479624 -0.130070
0.020140 -0.492163 -0.130070
0.020140 -0.504702 -0.130070
0.020140 -0.510972 -0.130070
0.020140 -0.523511 -0.130070
0.026899 -0.536050 -0.173716
0.033657 -0.548589 -0.217363
0.033657 -0.561128 -0.217363
0.033657 -0.573668 -0.217363
0.033657 -0.586207 -0.217363
0.040416 -0.598746 -0.261009
0.047174 -0.611285 -0.304656
0.053932 -0.617555 -0.348302
0.053932 -0.630094 -0.348302
0.067449 -0.642633 -0.435595
0.074208 -0.655172 -0.479242
0.080966 -0.667712 -0.522888
0.087724 -0.680251 -0.566535
0.094483 -0.692790 -0.610181
0.101241 -0.705329 -0.653828
0.101241 -0.717868 -0.653828
0.108000 -0.724138 -0.697475
0.114758 -0.736677 -0.741121
0.114758 -0.749216 -0.741121
0.121516 -0.761755 -0.784768
0.128275 -0.774295 -0.828414
0.128275 -0.786834 -0.828414
0.135033 -0.799373 -0.872061
0.135033 -0.811912 -0.872061
0.141792 -0.824451 -0.915707
0.141792 -0.830721 -0.915707
0.148550 -0.843260 -0.959354
0.148550 -0.855799 -0.959354
0.155308 -0.868339 -1.003000
0.155308 -0.880878 -1.003000
0.162067 -0.893417 -1.046647
0.162067 -0.905956 -1.046647
0.168825 -0.918495 -1.090293
0.168825 -0.931034 -1.090293
0.168825 -0.937304 -1.090293
0.168825 -0.949843 -1.090293
0.168825 -0.962382 -1.090293
0.168825 -0.974922 -1.090293
0.168825 -0.987461 -1.090293
0.168825 -1.000000 -1.090293
0.168825 -1.012539 -1.090293
0.168825 -1.025078 -1.090293
0.168825 -1.037617 -1.090293
0.168825 -1.043887 -1.090293
0.168825 -1.056426 -1.090293
0.168825 -1.068965 -1.090293
0.168825 -1.081505 -1.090293
0.168825 -1.094044 -1.090293
0.168825 -1.106583 -1.090293
0.168825 -1.119122 -1.090293
0.168825 -1.131661 -1.090293
0.168825 -1.144201 -1.090293
0.168825 -1.150470 -1.090293
0.168825 -1.163009 -1.090293
0.168825 -1.175549 -1.090293
0.168825 -1.188088 -1.090293
0.168825 -1.200627 -1.090293
0.168825 -1.213166 -1.090293
0.168825 -1.225705 -1.090293
0.168825 -1.238245 -1.090293
0.168825 -1.250784 -1.090293
0.168825 -1.257053 -1.090293
0.168825 -1.269593 -1.090293
0.168825 -1.282132 -1.090293
0.168825 -1.294671 -1.090293
0.168825 -1.307210 -1.090293
0.168825 -1.319749 -1.090293
0.168825 -1.332289 -1.090293
0.168825 -1.344828 -1.090293
0.168825 -1.357367 -1.090293
0.168825 -1.369906 -1.090293
0.168825 -1.376176 -1.090293
0.168825 -1.388715 -1.090293
0.168825 -1.401254 -1.090293
0.168825 -1.413793 -1.090293
0.168825 -1.426332 -1.090293
0.168825 -1.438871 -1.090293
0.168825 -1.451411 -1.090293
0.168825 -1.463950 -1.090293
0.168825 -1.476489 -1.090293
0.168825 -1.482759 -1.090293
0.168825 -1.495298 -1.090293
0.182342 -1.507837 -1.177586
0.236409 -1.520376 -1.526759
0.249926 -1.532915 -1.614051
0.249926 -1.545455 -1.614051
0.249926 -1.557994 -1.614051
0.243167 -1.570533 -1.570405
0.249926 -1.583072 -1.614051
0.009324 -0.253919 -0.086955
0.014033 -0.266458 -0.130870
0.014033 -0.278997 -0.130870
0.014033 -0.291536 -0.130870
0.018741 -0.297806 -0.174784
0.018741 -0.310345 -0.174784
0.023450 -0.322884 -0.218699
0.023450 -0.335423 -0.218699
0.028159 -0.347962 -0.262614
0.028159 -0.360502 -0.262614
0.028159 -0.373041 -0.262614
0.023450 -0.385580 -0.218699
0.018741 -0.398119 -0.174784
0.018741 -0.404389 -0.174784
0.018741 -0.416928 -0.174784
0.014033 -0.429467 -0.130870
0.014033 -0.442006 -0.130870
0.014033 -0.454545 -0.130870
0.014033 -0.467085 -0.130870
0.014033 -0.479624 -0.130870
0.014033 -0.492163 -0.130870
0.014033 -0.504702 -0.130870
0.014033 -0.510972 -0.130870
0.014033 -0.523511 -0.130870
0.014033 -0.536050 -0.130870
0.018741 -0.548589 -0.174784
0.023450 -0.561128 -0.218699
0.023450 -0.573668 -0.218699
0.023450 -0.586207 -0.218699
0.028159 -0.598746 -0.262614
0.032868 -0.611285 -0.306529
0.037577 -0.617555 -0.350444
0.037577 -0.630094 -0.350444
0.042286 -0.642633 -0.394359
0.051703 -0.655172 -0.482189
0.056412 -0.667712 -0.526104
0.061121 -0.680251 -0.570019
0.065830 -0.692790 -0.613934
0.070539 -0.705329 -0.657849
0.070539 -0.717868 -0.657849
0.075247 -0.724138 -0.701764
0.075247 -0.736677 -0.701764
0.079956 -0.749216 -0.745679
0.084665 -0.761755 -0.789594
0.084665 -0.774295 -0.789594
0.089374 -0.786834 -0.833509
0.089374 -0.799373 -0.833509
0.094083 -0.811912 -0.877424
0.094083 -0.824451 -0.877424
0.098791 -0.830721 -0.921338
0.098791 -0.843260 -0.921338
0.103500 -0.855799 -0.965253
0.103500 -0.868339 -0.965253
0.108209 -0.880878 -1.009168
0.108209 -0.893417 -1.009168
0.108209 -0.905956 -1.009168
0.112918 -0.918495 -1.053083
0.112918 -0.931034 -1.053083
0.112918 -0.937304 -1.053083
0.112918 -0.949843 -1.053083
0.112918 -0.962382 -1.053083
0.112918 -0.974922 -1.053083
0.112918 -0.987461 -1.053083
0.112918 -1.000000 -1.053083
0.112918 -1.012539 -1.053083
0.112918 -1.025078 -1.053083
0.112918 -1.037617 -1.053083
0.112918 -1.043887 -1.053083
0.112918 -1.056426 -1.053083
0.112918 -1.068965 -1.053083
0.112918 -1.081505 -1.053083
0.112918 -1.094044 -1.053083
0.112918 -1.106583 -1.053083
0.112918 -1.119122 -1.053083
0.112918 -1.131661 -1.053083
0.112918 -1.144201 -1.053083
0.112918 -1.150470 -1.053083
0.112918 -1.163009 -1.053083
0.112918 -1.175549 -1.053083
0.112918 -1.188088 -1.053083
0.112918 -1.200627 -1.053083
0.112918 -1.213166 -1.053083
0.112918 -1.225705 -1.053083
0.112918 -1.238245 -1.053083
0.112918 -1.250784 -1.053083
0.112918 -1.257053 -1.053083
0.112918 -1.269593 -1.053083
0.112918 -1.282132 -1.053083
0.112918 -1.294671 -1.053083
0.112918 -1.307210 -1.053083
0.112918 -1.319749 -1.053083
0.112918 -1.332289 -1.053083
0.112918 -1.344828 -1.053083
0.112918 -1.357367 -1.053083
0.112918 -1.369906 -1.053083
0.112918 -1.376176 -1.053083
0.112918 -1.388715 -1.053083
0.112918 -1.401254 -1.053083
0.112918 -1.413793 -1.053083
0.112918 -1.426332 -1.053083
0.112918 -1.438871 -1.053083
0.112918 -1.451411 -1.053083
0.112918 -1.463950 -1.053083
0.112918 -1.476489 -1.053083
0.112918 -1.482759 -1.053083
0.117627 -1.495298 -1.096998
0.160006 -1.507837 -1.492233
0.164715 -1.520376 -1.536148
0.169424 -1.532915 -1.580063
0.169424 -1.545455 -1.580063
0.164715 -1.557994 -1.536148
0.169424 -1.570533 -1.580063
-0.042083 -0.241379 -0.010134
-0.085023 -0.253919 -0.020475
-0.127962 -0.266458 -0.030815
-0.127962 -0.278997 -0.030815
-0.170901 -0.291536 -0.041156
-0.170901 -0.297806 -0.041156
-0.170901 -0.310345 -0.041156
-0.213840 -0.322884 -0.051496
-0.213840 -0.335423 -0.051496
-0.256779 -0.347962 -0.061837
-0.256779 -0.360502 -0.061837
-0.256779 -0.373041 -0.061837
-0.256779 -0.385580 -0.061837
-0.213840 -0.398119 -0.051496
-0.170901 -0.404389 -0.041156
-0.170901 -0.416928 -0.041156
-0.170901 -0.429467 -0.041156
-0.127962 -0.442006 -0.030815
-0.127962 -0.454545 -0.030815
-0.127962 -0.467085 -0.030815
-0.085023 -0.479624 -0.020475
-0.085023 -0.492163 -0.020475
-0.085023 -0.504702 -0.020475
-0.127962 -0.510972 -0.030815
-0.127962 -0.523511 -0.030815
-0.170901 -0.536050 -0.041156
-0.127962 -0.548589 -0.030815
-0.170901 -0.561128 -0.041156
-0.213840 -0.573668 -0.051496
-0.256779 -0.586207 -0.061837
-0.256779 -0.598746 -0.061837
-0.299718 -0.611285 -0.072177
-0.385597 -0.617555 -0.092858
-0.385597 -0.630094 -0.092858
-0.428536 -0.642633 -0.103199
-0.514414 -0.655172 -0.123880
-0.557353 -0.667712 -0.134220
-0.600292 -0.680251 -0.144561
-0.600292 -0.692790 -0.144561
-0.643231 -0.705329 -0.154901
-0.686170 -0.717868 -0.165242
-0.686170 -0.724138 -0.165242
-0.729109 -0.736677 -0.175582
-0.729109 -0.749216 -0.175582
-0.772049 -0.761755 -0.185923
-0.814988 -0.774295 -0.196263
-0.814988 -0.786834 -0.196263
-0.857927 -0.799373 -0.206604
-0.857927 -0.811912 -0.206604
-0.900866 -0.824451 -0.216944
-0.943805 -0.830721 -0.227285
-0.943805 -0.843260 -0.227285
-0.986744 -0.855799 -0.237625
-0.986744 -0.868339 -0.237625
-0.986744 -0.880878 -0.237625
-1.029683 -0.893417 -0.247966
-1.029683 -0.905956 -0.247966
-1.029683 -0.918495 -0.247966
-1.029683 -0.931034 -0.247966
-1.029683 -0.937304 -0.247966
-1.029683 -0.949843 -0.247966
-1.029683 -0.962382 -0.247966
-1.029683 -0.974922 -0.247966
-1.029683 -0.987461 -0.247966
-1.029683 -1.000000 -0.247966
-1.029683 -1.012539 -0.247966
-1.029683 -1.025078 -0.247966
-1.029683 -1.037617 -0.247966
-1.029683 -1.043887 -0.247966
-1.029683 -1.056426 -0.247966
-1.029683 -1.068965 -0.247966
-1.029683 -1.081505 -0.247966
-1.072623 -1.094044 -0.258306
-1.072623 -1.106583 -0.258306
-1.072623 -1.119122 -0.258306
-1.072623 -1.131661 -0.258306
-1.072623 -1.144201 -0.258306
-1.072623 -1.150470 -0.258306
-1.072623 -1.163009 -0.258306
-1.072623 -1.175549 -0.258306
-1.072623 -1.188088 -0.258306
-1.072623 -1.200627 -0.258306
-1.072623 -1.213166 -0.258306
-1.072623 -1.225705 -0.258306
-1.072623 -1.238245 -0.258306
-1.072623 -1.250784 -0.258306
-1.072623 -1.257053 -0.258306
-1.072623 -1.269593 -0.258306
-1.072623 -1.282132 -0.258306
-1.072623 -1.294671 -0.258306
-1.072623 -1.307210 -0.258306
-1.072623 -1.319749 -0.258306
-1.072623 -1.332289 -0.258306
-1.072623 -1.344828 -0.258306
-1.072623 -1.357367 -0.258306
-1.072623 -1.369906 -0.258306
-1.072623 -1.376176 -0.258306
-1.072623 -1.388715 -0.258306
-1.072623 -1.401254 -0.258306
-1.115562 -1.413793 -0.268647
-1.115562 -1.426332 -0.268647
-1.115562 -1.438871 -0.268647
-1.115562 -1.451411 -0.268647
-1.115562 -1.463950 -0.268647
-1.115562 -1.476489 -0.268647
-1.115562 -1.482759 -0.268647
-1.158501 -1.495298 -0.278987
-1.544953 -1.507837 -0.372051
-1.587892 -1.520376 -0.382392
-1.587892 -1.532915 -0.382392
-1.587892 -1.545455 -0.382392
-1.587892 -1.557994 -0.382392
0.004974 -0.253919 -0.087312
0.004974 -0.266458 -0.087312
0.007486 -0.278997 -0.131407
0.007486 -0.291536 -0.131407
0.009997 -0.297806 -0.175502
0.009997 -0.310345 -0.175502
0.012509 -0.322884 -0.219597
0.012509 -0.335423 -0.219597
0.015021 -0.347962 -0.263692
0.015021 -0.360502 -0.263692
0.012509 -0.373041 -0.219597
0.012509 -0.385580 -0.219597
0.012509 -0.398119 -0.219597
0.009997 -0.404389 -0.175502
0.009997 -0.416928 -0.175502
0.007486 -0.429467 -0.131407
0.007486 -0.442006 -0.131407
0.007486 -0.454545 -0.131407
0.007486 -0.467085 -0.131407
0.007486 -0.479624 -0.131407
0.007486 -0.492163 -0.131407
0.007486 -0.504702 -0.131407
0.007486 -0.510972 -0.131407
0.007486 -0.523511 -0.131407
0.009997 -0.536050 -0.175502
0.009997 -0.548589 -0.175502
0.012509 -0.561128 -0.219597
0.012509 -0.573668 -0.219597
0.012509 -0.586207 -0.219597
0.015021 -0.598746 -0.263692
0.017533 -0.611285 -0.307788
0.017533 -0.617555 -0.307788
0.020045 -0.630094 -0.351883
0.025069 -0.642633 -0.440073
0.027580 -0.655172 -0.484168
0.030092 -0.667712 -0.528263
0.032604 -0.680251 -0.572359
0.035116 -0.692790 -0.616454
0.035116 -0.705329 -0.616454
0.037628 -0.717868 -0.660549
0.037628 -0.724138 -0.660549
0.040140 -0.736677 -0.704644
0.042652 -0.749216 -0.748739
0.042652 -0.761755 -0.748739
0.045163 -0.774295 -0.792835
0.045163 -0.786834 -0.792835
0.047675 -0.799373 -0.836930
0.047675 -0.811912 -0.836930
0.050187 -0.824451 -0.881025
0.050187 -0.830721 -0.881025
0.052699 -0.843260 -0.925120
0.052699 -0.855799 -0.925120
0.055211 -0.868339 -0.969215
0.055211 -0.880878 -0.969215
0.055211 -0.893417 -0.969215
0.057723 -0.905956 -1.013310
0.057723 -0.918495 -1.013310
0.057723 -0.931034 -1.013310
0.057723 -0.937304 -1.013310
0.057723 -0.949843 -1.013310
0.057723 -0.962382 -1.013310
0.057723 -0.974922 -1.013310
0.057723 -0.987461 -1.013310
0.057723 -1.000000 -1.013310
0.057723 -1.012539 -1.013310
0.057723 -1.025078 -1.013310
0.057723 -1.037617 -1.013310
0.057723 -1.043887 -1.013310
0.057723 -1.056426 -1.013310
0.057723 -1.068965 -1.013310
0.057723 -1.081505 -1.013310
0.057723 -1.094044 -1.013310
0.057723 -1.106583 -1.013310
0.057723 -1.119122 -1.013310
0.057723 -1.131661 -1.013310
0.057723 -1.144201 -1.013310
0.057723 -1.150470 -1.013310
0.057723 -1.163009 -1.013310
0.057723 -1.175549 -1.013310
0.057723 -1.188088 -1.013310
0.057723 -1.200627 -1.013310
0.057723 -1.213166 -1.013310
0.057723 -1.225705 -1.013310
0.057723 -1.238245 -1.013310
0.057723 -1.250784 -1.013310
0.057723 -1.257053 -1.013310
0.057723 -1.269593 -1.013310
0.057723 -1.282132 -1.013310
0.057723 -1.294671 -1.013310
0.057723 -1.307210 -1.013310
0.057723 -1.319749 -1.013310
0.057723 -1.332289 -1.013310
0.057723 -1.344828 -1.013310
0.057723 -1.357367 -1.013310
0.057723 -1.369906 -1.013310
0.057723 -1.376176 -1.013310
0.057723 -1.388715 -1.013310
0.057723 -1.401254 -1.013310
0.057723 -1.413793 -1.013310
0.057723 -1.426332 -1.013310
0.057723 -1.438871 -1.013310
0.057723 -1.451411 -1.013310
0.057723 -1.463950 -1.013310
0.057723 -1.476489 -1.013310
0.062747 -1.482759 -1.101501
0.080330 -1.495298 -1.410167
0.082841 -1.507837 -1.454262
0.085353 -1.520376 -1.498358
0.085353 -1.532915 -1.498358
0.085353 -1.545455 -1.498358
0.085353 -1.557994 -1.498358
0.000302 -0.253919 -0.043285
0.000611 -0.266458 -0.087451
0.000920 -0.278997 -0.131617
0.000920 -0.291536 -0.131617
0.001228 -0.297806 -0.175782
0.001228 -0.310345 -0.175782
0.001537 -0.322884 -0.219948
0.001537 -0.335423 -0.219948
0.001537 -0.347962 -0.219948
0.001845 -0.360502 -0.264113
0.001845 -0.373041 -0.264113
0.001537 -0.385580 -0.219948
0.001228 -0.398119 -0.175782
0.001228 -0.404389 -0.175782
0.001228 -0.416928 -0.175782
0.001228 -0.429467 -0.175782
0.000920 -0.442006 -0.131617
0.000920 -0.454545 -0.131617
0.000920 -0.467085 -0.131617
0.000920 -0.479624 -0.131617
0.000920 -0.492163 -0.131617
0.000920 -0.504702 -0.131617
0.000920 -0.510972 -0.131617
0.000920 -0.523511 -0.131617
0.000920 -0.536050 -0.131617
0.001228 -0.548589 -0.175782
0.001228 -0.561128 -0.175782
0.001537 -0.573668 -0.219948
0.001537 -0.586207 -0.219948
0.001845 -0.598746 -0.264113
0.002154 -0.611285 -0.308279
0.002154 -0.617555 -0.308279
0.002462 -0.630094 -0.352445
0.002771 -0.642633 -0.396610
0.003080 -0.655172 -0.440776
0.003697 -0.667712 -0.529107
0.003697 -0.680251 -0.529107
0.004005 -0.692790 -0.573272
0.004314 -0.705329 -0.617438
0.004314 -0.717868 -0.617438
0.004623 -0.724138 -0.661604
0.004931 -0.736677 -0.705769
0.004931 -0.749216 -0.705769
0.005240 -0.761755 -0.749935
0.005240 -0.774295 -0.749935
0.005548 -0.786834 -0.794100
0.005548 -0.799373 -0.794100
0.005857 -0.811912 -0.838266
0.005857 -0.824451 -0.838266
0.006165 -0.830721 -0.882432
0.006165 -0.843260 -0.882432
0.006474 -0.855799 -0.926597
0.006474 -0.868339 -0.926597
0.006783 -0.880878 -0.970763
0.006783 -0.893417 -0.970763
0.006783 -0.905956 -0.970763
0.006783 -0.918495 -0.970763
0.006783 -0.931034 -0.970763
0.006783 -0.937304 -0.970763
0.006783 -0.949843 -0.970763
0.006783 -0.962382 -0.970763
0.006783 -0.974922 -0.970763
0.006783 -0.987461 -0.970763
0.006783 -1.000000 -0.970763
0.006783 -1.012539 -0.970763
0.006783 -1.025078 -0.970763
0.006783 -1.037617 -0.970763
0.006783 -1.043887 -0.970763
0.006783 -1.056426 -0.970763
0.006783 -1.068965 -0.970763
0.006783 -1.081505 -0.970763
0.006783 -1.094044 -0.970763
0.007091 -1.106583 -1.014928
0.007091 -1.119122 -1.014928
0.007091 -1.131661 -1.014928
0.007091 -1.144201 -1.014928
0.007091 -1.150470 -1.014928
0.007091 -1.163009 -1.014928
0.007091 -1.175549 -1.014928
0.007091 -1.188088 -1.014928
0.007091 -1.200627 -1.014928
0.007091 -1.213166 -1.014928
0.007091 -1.225705 -1.014928
0.007091 -1.238245 -1.014928
0.007091 -1.250784 -1.014928
0.007091 -1.257053 -1.014928
0.007091 -1.269593 -1.014928
0.007091 -1.282132 -1.014928
0.007091 -1.294671 -1.014928
0.007091 -1.307210 -1.014928
0.007091 -1.319749 -1.014928
0.007091 -1.332289 -1.014928
0.007091 -1.344828 -1.014928
0.007091 -1.357367 -1.014928
0.007091 -1.369906 -1.014928
0.007091 -1.376176 -1.014928
0.007091 -1.388715 -1.014928
0.007091 -1.401254 -1.014928
0.007091 -1.413793 -1.014928
0.007091 -1.426332 -1.014928
0.007091 -1.438871 -1.014928
0.006783 -1.451411 -0.970763
0.006783 -1.463950 -0.970763
0.007091 -1.476489 -1.014928
0.009868 -1.482759 -1.412419
0.010177 -1.495298 -1.456584
0.010177 -1.507837 -1.456584
0.009868 -1.520376 -1.412419
0.009868 -1.532915 -1.412419
0.010177 -1.545455 -1.456584
-0.001858 -0.241379 -0.043247
-0.001858 -0.253919 -0.043247
-0.003753 -0.266458 -0.087373
-0.005649 -0.278997 -0.131499
-0.005649 -0.291536 -0.131499
-0.007544 -0.297806 -0.175624
-0.007544 -0.310345 -0.175624
-0.009440 -0.322884 -0.219750
-0.009440 -0.335423 -0.219750
-0.009440 -0.347962 -0.219750
-0.011335 -0.360502 -0.263876
-0.011335 -0.373041 -0.263876
-0.011335 -0.385580 -0.263876
-0.009440 -0.398119 -0.219750
-0.007544 -0.404389 -0.175624
-0.007544 -0.416928 -0.175624
-0.007544 -0.429467 -0.175624
-0.007544 -0.442006 -0.175624
-0.005649 -0.454545 -0.131499
-0.005649 -0.467085 -0.131499
-0.005649 -0.479624 -0.131499
-0.005649 -0.492163 -0.131499
-0.005649 -0.504702 -0.131499
-0.005649 -0.510972 -0.131499
-0.005649 -0.523511 -0.131499
-0.005649 -0.536050 -0.131499
-0.007544 -0.548589 -0.175624
-0.007544 -0.561128 -0.175624
-0.009440 -0.573668 -0.219750
-0.009440 -0.586207 -0.219750
-0.011335 -0.598746 -0.263876
-0.011335 -0.611285 -0.263876
-0.013231 -0.617555 -0.308002
-0.017021 -0.630094 -0.396254
-0.017021 -0.642633 -0.396254
-0.018917 -0.655172 -0.440380
-0.022708 -0.667712 -0.528632
-0.022708 -0.680251 -0.528632
-0.024603 -0.692790 -0.572758
-0.026499 -0.705329 -0.616884
-0.026499 -0.717868 -0.616884
-0.028394 -0.724138 -0.661010
-0.028394 -0.736677 -0.661010
-0.030290 -0.749216 -0.705136
-0.030290 -0.761755 -0.705136
-0.032185 -0.774295 -0.749262
-0.032185 -0.786834 -0.749262
-0.034081 -0.799373 -0.793388
-0.034081 -0.811912 -0.793388
-0.035976 -0.824451 -0.837514
-0.035976 -0.830721 -0.837514
-0.037872 -0.843260 -0.881640
-0.037872 -0.855799 -0.881640
-0.039767 -0.868339 -0.925766
-0.039767 -0.880878 -0.925766
-0.039767 -0.893417 -0.925766
-0.041663 -0.905956 -0.969892
-0.041663 -0.918495 -0.969892
-0.041663 -0.931034 -0.969892
-0.041663 -0.937304 -0.969892
-0.041663 -0.949843 -0.969892
-0.041663 -0.962382 -0.969892
-0.041663 -0.974922 -0.969892
-0.041663 -0.987461 -0.969892
-0.041663 -1.000000 -0.969892
-0.041663 -1.012539 -0.969892
-0.041663 -1.025078 -0.969892
-0.041663 -1.037617 -0.969892
-0.041663 -1.043887 -0.969892
-0.041663 -1.056426 -0.969892
-0.041663 -1.068965 -0.969892
-0.041663 -1.081505 -0.969892
-0.041663 -1.094044 -0.969892
-0.041663 -1.106583 -0.969892
-0.041663 -1.119122 -0.969892
-0.041663 -1.131661 -0.969892
-0.041663 -1.144201 -0.969892
-0.041663 -1.150470 -0.969892
-0.041663 -1.163009 -0.969892
-0.041663 -1.175549 -0.969892
-0.041663 -1.188088 -0.969892
-0.041663 -1.200627 -0.969892
-0.041663 -1.213166 -0.969892
-0.041663 -1.225705 -0.969892
-0.041663 -1.238245 -0.969892
-0.041663 -1.250784 -0.969892
-0.041663 -1.257053 -0.969892
-0.041663 -1.269593 -0.969892
-0.041663 -1.282132 -0.969892
-0.041663 -1.294671 -0.969892
-0.041663 -1.307210 -0.969892
-0.041663 -1.319749 -0.969892
-0.041663 -1.332289 -0.969892
-0.041663 -1.344828 -0.969892
-0.041663 -1.357367 -0.969892
-0.041663 -1.369906 -0.969892
-0.041663 -1.376176 -0.969892
-0.041663 -1.388715 -0.969892
-0.041663 -1.401254 -0.969892
-0.041663 -1.413793 -0.969892
-0.041663 -1.426332 -0.969892
-0.041663 -1.438871 -0.969892
-0.041663 -1.451411 -0.969892
-0.043558 -1.463950 -1.014018
-0.043558 -1.476489 -1.014018
-0.058722 -1.482759 -1.367026
-0.060617 -1.495298 -1.411152
-0.058722 -1.507837 -1.367026
-0.058722 -1.520376 -1.367026
-0.060617 -1.532915 -1.411152
-0.004013 -0.253919 -0.043100
-0.008108 -0.266458 -0.087077
-0.012203 -0.278997 -0.131053
-0.012203 -0.291536 -0.131053
-0.016298 -0.297806 -0.175029
-0.016298 -0.310345 -0.175029
-0.016298 -0.322884 -0.175029
-0.020392 -0.335423 -0.219006
-0.020392 -0.347962 -0.219006
-0.024487 -0.360502 -0.262982
-0.024487 -0.373041 -0.262982
-0.020392 -0.385580 -0.219006
-0.016298 -0.398119 -0.175029
-0.016298 -0.404389 -0.175029
-0.016298 -0.416928 -0.175029
-0.012203 -0.429467 -0.131053
-0.012203 -0.442006 -0.131053
-0.012203 -0.454545 -0.131053
-0.012203 -0.467085 -0.131053
-0.012203 -0.479624 -0.131053
-0.012203 -0.492163 -0.131053
-0.012203 -0.504702 -0.131053
-0.012203 -0.510972 -0.131053
-0.008108 -0.523511 -0.087077
-0.012203 -0.536050 -0.131053
-0.016298 -0.548589 -0.175029
-0.016298 -0.561128 -0.175029
-0.016298 -0.573668 -0.175029
-0.020392 -0.586207 -0.219006
-0.024487 -0.598746 -0.262982
-0.024487 -0.611285 -0.262982
-0.028582 -0.617555 -0.306959
-0.032677 -0.630094 -0.350935
-0.036772 -0.642633 -0.394912
-0.044961 -0.655172 -0.482864
-0.049056 -0.667712 -0.526841
-0.049056 -0.680251 -0.526841
-0.053151 -0.692790 -0.570817
-0.057246 -0.705329 -0.614794
-0.057246 -0.717868 -0.614794
-0.057246 -0.724138 -0.614794
-0.061341 -0.736677 -0.658770
-0.065435 -0.749216 -0.702747
-0.065435 -0.761755 -0.702747
-0.069530 -0.774295 -0.746723
-0.069530 -0.786834 -0.746723
-0.073625 -0.799373 -0.790699
-0.073625 -0.811912 -0.790699
-0.073625 -0.824451 -0.790699
-0.077720 -0.830721 -0.834676
-0.077720 -0.843260 -0.834676
-0.081815 -0.855799 -0.878652
-0.081815 -0.868339 -0.878652
-0.081815 -0.880878 -0.878652
-0.081815 -0.893417 -0.878652
-0.085910 -0.905956 -0.922629
-0.085910 -0.918495 -0.922629
-0.085910 -0.931034 -0.922629
-0.085910 -0.937304 -0.922629
-0.085910 -0.949843 -0.922629
-0.085910 -0.962382 -0.922629
-0.085910 -0.974922 -0.922629
-0.085910 -0.987461 -0.922629
-0.085910 -1.000000 -0.922629
-0.085910 -1.012539 -0.922629
-0.085910 -1.025078 -0.922629
-0.085910 -1.037617 -0.922629
-0.085910 -1.043887 -0.922629
-0.085910 -1.056426 -0.922629
-0.085910 -1.068965 -0.922629
-0.085910 -1.081505 -0.922629
-0.085910 -1.094044 -0.922629
-0.085910 -1.106583 -0.922629
-0.085910 -1.119122 -0.922629
-0.085910 -1.131661 -0.922629
-0.085910 -1.144201 -0.922629
-0.085910 -1.150470 -0.922629
-0.085910 -1.163009 -0.922629
-0.085910 -1.175549 -0.922629
-0.085910 -1.188088 -0.922629
-0.085910 -1.200627 -0.922629
-0.085910 -1.213166 -0.922629
-0.085910 -1.225705 -0.922629
-0.085910 -1.238245 -0.922629
-0.085910 -1.250784 -0.922629
-0.085910 -1.257053 -0.922629
-0.085910 -1.269593 -0.922629
-0.085910 -1.282132 -0.922629
-0.085910 -1.294671 -0.922629
-0.085910 -1.307210 -0.922629
-0.085910 -1.319749 -0.922629
-0.085910 -1.332289 -0.922629
-0.085910 -1.344828 -0.922629
-0.085910 -1.357367 -0.922629
-0.085910 -1.369906 -0.922629
-0.085910 -1.376176 -0.922629
-0.085910 -1.388715 -0.922629
-0.085910 -1.401254 -0.922629
-0.085910 -1.413793 -0.922629
-0.085910 -1.426332 -0.922629
-0.085910 -1.438871 -0.922629
-0.090004 -1.451411 -0.966605
-0.122763 -1.463950 -1.318417
-0.126858 -1.476489 -1.362393
-0.126858 -1.482759 -1.362393
-0.122763 -1.495298 -1.318417
-0.122763 -1.507837 -1.318417
-0.126858 -1.520376 -1.362393
-0.126858 -1.532915 -1.362393
-0.081815 -1.589342 -0.878652
-0.081815 -1.601881 -0.878652
-0.085910 -1.614420 -0.922629
-0.006159 -0.241379 -0.042846
-0.006159 -0.253919 -0.042846
-0.012443 -0.266458 -0.086564
-0.018727 -0.278997 -0.130281
-0.018727 -0.291536 -0.130281
-0.025011 -0.297806 -0.173998
-0.025011 -0.310345 -0.173998
-0.025011 -0.322884 -0.173998
-0.031295 -0.335423 -0.217715
-0.031295 -0.347962 -0.217715
-0.031295 -0.360502 -0.217715
-0.031295 -0.373041 -0.217715
-0.031295 -0.385580 -0.217715
-0.025011 -0.398119 -0.173998
-0.025011 -0.404389 -0.173998
-0.025011 -0.416928 -0.173998
-0.018727 -0.429467 -0.130281
-0.018727 -0.442006 -0.130281
-0.018727 -0.454545 -0.130281
-0.018727 -0.467085 -0.130281
-0.018727 -0.479624 -0.130281
-0.018727 -0.492163 -0.130281
-0.018727 -0.504702 -0.130281
-0.018727 -0.510972 -0.130281
-0.018727 -0.523511 -0.130281
-0.018727 -0.536050 -0.130281
-0.025011 -0.548589 -0.173998
-0.025011 -0.561128 -0.173998
-0.025011 -0.573668 -0.173998
-0.031295 -0.586207 -0.217715
-0.031295 -0.598746 -0.217715
-0.037578 -0.611285 -0.261433
-0.050146 -0.617555 -0.348868
-0.050146 -0.630094 -0.348868
-0.056430 -0.642633 -0.392585
-0.062714 -0.655172 -0.436302
-0.068998 -0.667712 -0.480020
-0.075282 -0.680251 -0.523737
-0.081566 -0.692790 -0.567454
-0.081566 -0.705329 -0.567454
-0.087850 -0.717868 -0.611172
-0.087850 -0.724138 -0.611172
-0.094134 -0.736677 -0.654889
-0.094134 -0.749216 -0.654889
-0.100418 -0.761755 -0.698606
-0.100418 -0.774295 -0.698606
-0.106702 -0.786834 -0.742324
-0.106702 -0.799373 -0.742324
-0.106702 -0.811912 -0.742324
-0.112986 -0.824451 -0.786041
-0.112986 -0.830721 -0.786041
-0.119270 -0.843260 -0.829758
-0.119270 -0.855799 -0.829758
-0.119270 -0.868339 -0.829758
-0.125554 -0.880878 -0.873476
-0.125554 -0.893417 -0.873476
-0.125554 -0.905956 -0.873476
-0.125554 -0.918495 -0.873476
-0.125554 -0.931034 -0.873476
-0.125554 -0.937304 -0.873476
-0.125554 -0.949843 -0.873476
-0.125554 -0.962382 -0.873476
-0.125554 -0.974922 -0.873476
-0.125554 -0.987461 -0.873476
-0.125554 -1.000000 -0.873476
-0.125554 -1.012539 -0.873476
-0.125554 -1.025078 -0.873476
-0.125554 -1.037617 -0.873476
-0.125554 -1.043887 -0.873476
-0.125554 -1.056426 -0.873476
-0.125554 -1.068965 -0.873476
-0.125554 -1.081505 -0.873476
-0.125554 -1.094044 -0.873476
-0.125554 -1.106583 -0.873476
-0.125554 -1.119122 -0.873476
-0.125554 -1.131661 -0.873476
-0.125554 -1.144201 -0.873476
-0.125554 -1.150470 -0.873476
-0.125554 -1.163009 -0.873476
-0.125554 -1.175549 -0.873476
-0.131838 -1.188088 -0.917193
-0.131838 -1.200627 -0.917193
-0.131838 -1.213166 -0.917193
-0.131838 -1.225705 -0.917193
-0.131838 -1.238245 -0.917193
-0.131838 -1.250784 -0.917193
-0.131838 -1.257053 -0.917193
-0.131838 -1.269593 -0.917193
-0.131838 -1.282132 -0.917193
-0.131838 -1.294671 -0.917193
-0.131838 -1.307210 -0.917193
-0.131838 -1.319749 -0.917193
-0.131838 -1.332289 -0.917193
-0.131838 -1.344828 -0.917193
-0.131838 -1.357367 -0.917193
-0.131838 -1.369906 -0.917193
-0.131838 -1.376176 -0.917193
-0.131838 -1.388715 -0.917193
-0.131838 -1.401254 -0.917193
-0.125554 -1.413793 -0.873476
-0.125554 -1.426332 -0.873476
-0.125554 -1.438871 -0.873476
-0.138122 -1.451411 -0.960911
-0.182109 -1.463950 -1.266932
-0.194677 -1.476489 -1.354367
-0.194677 -1.482759 -1.354367
-0.194677 -1.495298 -1.354367
-0.188393 -1.507837 -1.310649
-0.194677 -1.520376 -1.354367
-0.008554 -0.241379 -0.042433
-0.008554 -0.253919 -0.042433
-0.017281 -0.266458 -0.085729
-0.026009 -0.278997 -0.129025
-0.026009 -0.291536 -0.129025
-0.034736 -0.297806 -0.172320
-0.034736 -0.310345 -0.172320
-0.034736 -0.322884 -0.172320
-0.043464 -0.335423 -0.215616
-0.043464 -0.347962 -0.215616
-0.043464 -0.360502 -0.215616
-0.043464 -0.373041 -0.215616
-0.043464 -0.385580 -0.215616
-0.043464 -0.398119 -0.215616
-0.034736 -0.404389 -0.172320
-0.026009 -0.416928 -0.129025
-0.026009 -0.429467 -0.129025
-0.026009 -0.442006 -0.129025
-0.026009 -0.454545 -0.129025
-0.017281 -0.467085 -0.085729
-0.026009 -0.479624 -0.129025
-0.026009 -0.492163 -0.129025
-0.026009 -0.504702 -0.129025
-0.026009 -0.510972 -0.129025
-0.026009 -0.523511 -0.129025
-0.034736 -0.536050 -0.172320
-0.034736 -0.548589 -0.172320
-0.034736 -0.561128 -0.172320
-0.034736 -0.573668 -0.172320
-0.034736 -0.586207 -0.172320
-0.043464 -0.598746 -0.215616
-0.052192 -0.611285 -0.258912
-0.060919 -0.617555 -0.302208
-0.060919 -0.630094 -0.302208
-0.078375 -0.642633 -0.388799
-0.087102 -0.655172 -0.432095
-0.095830 -0.667712 -0.475391
-0.104557 -0.680251 -0.518686
-0.104557 -0.692790 -0.518686
-0.113285 -0.705329 -0.561982
-0.122013 -0.717868 -0.605278
-0.122013 -0.724138 -0.605278
-0.130740 -0.736677 -0.648574
-0.130740 -0.749216 -0.648574
-0.130740 -0.761755 -0.648574
-0.139468 -0.774295 -0.691869
-0.139468 -0.786834 -0.691869
-0.148195 -0.799373 -0.735165
-0.148195 -0.811912 -0.735165
-0.156923 -0.824451 -0.778461
-0.156923 -0.830721 -0.778461
-0.156923 -0.843260 -0.778461
-0.165651 -0.855799 -0.821757
-0.165651 -0.868339 -0.821757
-0.165651 -0.880878 -0.821757
-0.165651 -0.893417 -0.821757
-0.165651 -0.905956 -0.821757
-0.165651 -0.918495 -0.821757
-0.165651 -0.931034 -0.821757
-0.165651 -0.937304 -0.821757
-0.174378 -0.949843 -0.865053
-0.174378 -0.962382 -0.865053
-0.174378 -0.974922 -0.865053
-0.174378 -0.987461 -0.865053
-0.174378 -1.000000 -0.865053
-0.174378 -1.012539 -0.865053
-0.174378 -1.025078 -0.865053
-0.174378 -1.037617 -0.865053
-0.174378 -1.043887 -0.865053
-0.174378 -1.056426 -0.865053
-0.174378 -1.068965 -0.865053
-0.174378 -1.081505 -0.865053
-0.174378 -1.094044 -0.865053
-0.174378 -1.106583 -0.865053
-0.174378 -1.119122 -0.865053
-0.174378 -1.131661 -0.865053
-0.174378 -1.144201 -0.865053
-0.174378 -1.150470 -0.865053
-0.174378 -1.163009 -0.865053
-0.174378 -1.175549 -0.865053
-0.174378 -1.188088 -0.865053
-0.174378 -1.200627 -0.865053
-0.174378 -1.213166 -0.865053
-0.174378 -1.225705 -0.865053
-0.174378 -1.238245 -0.865053
-0.174378 -1.250784 -0.865053
-0.174378 -1.257053 -0.865053
-0.174378 -1.269593 -0.865053
-0.174378 -1.282132 -0.865053
-0.174378 -1.294671 -0.865053
-0.174378 -1.307210 -0.865053
-0.174378 -1.319749 -0.865053
-0.174378 -1.332289 -0.865053
-0.174378 -1.344828 -0.865053
-0.174378 -1.357367 -0.865053
-0.174378 -1.369906 -0.865053
-0.174378 -1.376176 -0.865053
-0.174378 -1.388715 -0.865053
-0.174378 -1.401254 -0.865053
-0.174378 -1.413793 -0.865053
-0.174378 -1.426332 -0.865053
-0.183106 -1.438871 -0.908348
-0.191833 -1.451411 -0.951644
-0.244199 -1.463950 -1.211419
-0.252927 -1.476489 -1.254714
-0.261654 -1.482759 -1.298010
-0.261654 -1.495298 -1.298010
-0.252927 -1.507837 -1.254714
-0.252927 -1.520376 -1.254714
-0.148195 -1.570533 -0.735165
-0.156923 -1.583072 -0.778461
-0.156923 -1.589342 -0.778461
-0.010398 -0.241379 -0.042019
-0.010398 -0.253919 -0.042019
-0.021008 -0.266458 -0.084892
-0.031618 -0.278997 -0.127766
-0.031618 -0.291536 -0.127766
-0.042228 -0.297806 -0.170639
-0.042228 -0.310345 -0.170639
-0.042228 -0.322884 -0.170639
-0.052838 -0.335423 -0.213512
-0.052838 -0.347962 -0.213512
-0.052838 -0.360502 -0.213512
-0.052838 -0.373041 -0.213512
-0.052838 -0.385580 -0.213512
-0.052838 -0.398119 -0.213512
-0.042228 -0.404389 -0.170639
-0.031618 -0.416928 -0.127766
-0.031618 -0.429467 -0.127766
-0.031618 -0.442006 -0.127766
-0.031618 -0.454545 -0.127766
-0.031618 -0.467085 -0.127766
-0.031618 -0.479624 -0.127766
-0.031618 -0.492163 -0.127766
-0.031618 -0.504702 -0.127766
-0.031618 -0.510972 -0.127766
-0.031618 -0.523511 -0.127766
-0.031618 -0.536050 -0.127766
-0.042228 -0.548589 -0.170639
-0.042228 -0.561128 -0.170639
-0.052838 -0.573668 -0.213512
-0.052838 -0.586207 -0.213512
-0.052838 -0.598746 -0.213512
-0.063448 -0.611285 -0.256386
-0.063448 -0.617555 -0.256386
-0.074057 -0.630094 -0.299259
-0.095277 -0.642633 -0.385006
-0.105887 -0.655172 -0.427879
-0.116497 -0.667712 -0.470753
-0.127107 -0.680251 -0.513626
-0.127107 -0.692790 -0.513626
-0.137717 -0.705329 -0.556499
-0.137717 -0.717868 -0.556499
-0.148326 -0.724138 -0.599373
-0.148326 -0.736677 -0.599373
-0.158936 -0.749216 -0.642246
-0.158936 -0.761755 -0.642246
-0.169546 -0.774295 -0.685120
-0.169546 -0.786834 -0.685120
-0.169546 -0.799373 -0.685120
-0.180156 -0.811912 -0.727993
-0.180156 -0.824451 -0.727993
-0.190766 -0.830721 -0.770866
-0.190766 -0.843260 -0.770866
-0.190766 -0.855799 -0.770866
-0.201376 -0.868339 -0.813740
-0.201376 -0.880878 -0.813740
-0.201376 -0.893417 -0.813740
-0.201376 -0.905956 -0.813740
-0.201376 -0.918495 -0.813740
-0.201376 -0.931034 -0.813740
-0.201376 -0.937304 -0.813740
-0.201376 -0.949843 -0.813740
-0.201376 -0.962382 -0.813740
-0.201376 -0.974922 -0.813740
-0.201376 -0.987461 -0.813740
-0.201376 -1.000000 -0.813740
-0.201376 -1.012539 -0.813740
-0.211985 -1.025078 -0.856613
-0.211985 -1.037617 -0.856613
-0.211985 -1.043887 -0.856613
-0.201376 -1.056426 -0.813740
-0.201376 -1.068965 -0.813740
-0.201376 -1.081505 -0.813740
-0.201376 -1.094044 -0.813740
-0.201376 -1.106583 -0.813740
-0.201376 -1.119122 -0.813740
-0.211985 -1.131661 -0.856613
-0.211985 -1.144201 -0.856613
-0.211985 -1.150470 -0.856613
-0.211985 -1.163009 -0.856613
-0.211985 -1.175549 -0.856613
-0.211985 -1.188088 -0.856613
-0.211985 -1.200627 -0.856613
-0.211985 -1.213166 -0.856613
-0.211985 -1.225705 -0.856613
-0.211985 -1.238245 -0.856613
-0.211985 -1.250784 -0.856613
-0.211985 -1.257053 -0.856613
-0.211985 -1.269593 -0.856613
-0.211985 -1.282132 -0.856613
-0.211985 -1.294671 -0.856613
-0.211985 -1.307210 -0.856613
-0.211985 -1.319749 -0.856613
-0.211985 -1.332289 -0.856613
-0.211985 -1.344828 -0.856613
-0.211985 -1.357367 -0.856613
-0.211985 -1.369906 -0.856613
-0.211985 -1.376176 -0.856613
-0.211985 -1.388715 -0.856613
-0.211985 -1.401254 -0.856613
-0.211985 -1.413793 -0.856613
-0.201376 -1.426332 -0.813740
-0.233205 -1.438871 -0.942360
-0.233205 -1.451411 -0.942360
-0.307474 -1.463950 -1.242473
-0.318084 -1.476489 -1.285347
-0.318084 -1.482759 -1.285347
-0.307474 -1.495298 -1.242473
-0.307474 -1.507837 -1.242473
-0.180156 -1.557994 -0.727993
-0.180156 -1.570533 -0.727993
-0.180156 -1.583072 -0.727993
-0.201376 -1.589342 -0.813740
-0.243815 -1.639498 -0.985233
-0.254425 -1.652038 -1.028106
-0.012482 -0.253919 -0.041448
-0.025218 -0.266458 -0.083738
-0.037953 -0.278997 -0.126029
-0.037953 -0.291536 -0.126029
-0.050689 -0.297806 -0.168320
-0.050689 -0.310345 -0.168320
-0.050689 -0.322884 -0.168320
-0.063425 -0.335423 -0.210610
-0.063425 -0.347962 -0.210610
-0.063425 -0.360502 -0.210610
-0.063425 -0.373041 -0.210610
-0.050689 -0.385580 -0.168320
-0.050689 -0.398119 -0.168320
-0.050689 -0.404389 -0.168320
-0.037953 -0.416928 -0.126029
-0.037953 -0.429467 -0.126029
-0.037953 -0.442006 -0.126029
-0.025218 -0.454545 -0.083738
-0.025218 -0.467085 -0.083738
-0.037953 -0.479624 -0.126029
-0.037953 -0.492163 -0.126029
-0.037953 -0.504702 -0.126029
-0.037953 -0.510972 -0.126029
-0.037953 -0.523511 -0.126029
-0.037953 -0.536050 -0.126029
-0.050689 -0.548589 -0.168320
-0.063425 -0.561128 -0.210610
-0.063425 -0.573668 -0.210610
-0.063425 -0.586207 -0.210610
-0.063425 -0.598746 -0.210610
-0.076161 -0.611285 -0.252901
-0.088897 -0.617555 -0.295191
-0.101632 -0.630094 -0.337482
-0.114368 -0.642633 -0.379773
-0.127104 -0.655172 -0.422063
-0.139840 -0.667712 -0.464354
-0.139840 -0.680251 -0.464354
-0.152575 -0.692790 -0.506644
-0.152575 -0.705329 -0.506644
-0.165311 -0.717868 -0.548935
-0.178047 -0.724138 -0.591226
-0.178047 -0.736677 -0.591226
-0.190783 -0.749216 -0.633516
-0.190783 -0.761755 -0.633516
-0.203518 -0.774295 -0.675807
-0.203518 -0.786834 -0.675807
-0.203518 -0.799373 -0.675807
-0.216254 -0.811912 -0.718097
-0.216254 -0.824451 -0.718097
-0.216254 -0.830721 -0.718097
-0.228990 -0.843260 -0.760388
-0.228990 -0.855799 -0.760388
-0.228990 -0.868339 -0.760388
-0.228990 -0.880878 -0.760388
-0.241726 -0.893417 -0.802679
-0.241726 -0.905956 -0.802679
-0.241726 -0.918495 -0.802679
-0.241726 -0.931034 -0.802679
-0.241726 -0.937304 -0.802679
-0.241726 -0.949843 -0.802679
-0.241726 -0.962382 -0.802679
-0.241726 -0.974922 -0.802679
-0.241726 -0.987461 -0.802679
-0.241726 -1.000000 -0.802679
-0.241726 -1.012539 -0.802679
-0.241726 -1.025078 -0.802679
-0.241726 -1.037617 -0.802679
-0.241726 -1.043887 -0.802679
-0.241726 -1.056426 -0.802679
-0.241726 -1.068965 -0.802679
-0.241726 -1.081505 -0.802679
-0.241726 -1.094044 -0.802679
-0.241726 -1.106583 -0.802679
-0.241726 -1.119122 -0.802679
-0.241726 -1.131661 -0.802679
-0.241726 -1.144201 -0.802679
-0.241726 -1.150470 -0.802679
-0.241726 -1.163009 -0.802679
-0.241726 -1.175549 -0.802679
-0.241726 -1.188088 -0.802679
-0.241726 -1.200627 -0.802679
-0.241726 -1.213166 -0.802679
-0.241726 -1.225705 -0.802679
-0.241726 -1.238245 -0.802679
-0.241726 -1.250784 -0.802679
-0.241726 -1.257053 -0.802679
-0.241726 -1.269593 -0.802679
-0.241726 -1.282132 -0.802679
-0.241726 -1.294671 -0.802679
-0.241726 -1.307210 -0.802679
-0.241726 -1.319749 -0.802679
-0.241726 -1.332289 -0.802679
-0.241726 -1.344828 -0.802679
-0.241726 -1.357367 -0.802679
-0.241726 -1.369906 -0.802679
-0.241726 -1.376176 -0.802679
-0.241726 -1.388715 -0.802679
-0.241726 -1.401254 -0.802679
-0.241726 -1.413793 -0.802679
-0.254461 -1.426332 -0.844969
-0.267197 -1.438871 -0.887260
-0.343612 -1.451411 -1.141003
-0.369083 -1.463950 -1.225585
-0.369083 -1.476489 -1.225585
-0.369083 -1.482759 -1.225585
-0.369083 -1.495298 -1.225585
-0.356348 -1.507837 -1.183294
-0.343612 -1.520376 -1.141003
-0.203518 -1.557994 -0.675807
-0.216254 -1.570533 -0.718097
-0.216254 -1.583072 -0.718097
-0.014534 -0.253919 -0.040773
-0.029364 -0.266458 -0.082376
-0.044195 -0.278997 -0.123978
-0.044195 -0.291536 -0.123978
-0.059024 -0.297806 -0.165581
-0.059024 -0.310345 -0.165581
-0.059024 -0.322884 -0.165581
-0.059024 -0.335423 -0.165581
-0.073854 -0.347962 -0.207183
-0.073854 -0.360502 -0.207183
-0.073854 -0.373041 -0.207183
-0.073854 -0.385580 -0.207183
-0.073854 -0.398119 -0.207183
-0.044195 -0.404389 -0.123978
-0.044195 -0.416928 -0.123978
-0.059024 -0.429467 -0.165581
-0.044195 -0.442006 -0.123978
-0.044195 -0.454545 -0.123978
-0.044195 -0.467085 -0.123978
-0.044195 -0.479624 -0.123978
-0.029364 -0.492163 -0.082376
-0.044195 -0.504702 -0.123978
-0.044195 -0.510972 -0.123978
-0.044195 -0.523511 -0.123978
-0.044195 -0.536050 -0.123978
-0.059024 -0.548589 -0.165581
-0.059024 -0.561128 -0.165581
-0.073854 -0.573668 -0.207183
-0.073854 -0.586207 -0.207183
-0.073854 -0.598746 -0.207183
-0.088685 -0.611285 -0.248786
-0.088685 -0.617555 -0.248786
-0.118345 -0.630094 -0.331991
-0.133175 -0.642633 -0.373593
-0.148005 -0.655172 -0.415196
-0.162835 -0.667712 -0.456798
-0.162835 -0.680251 -0.456798
-0.177665 -0.692790 -0.498401
-0.177665 -0.705329 -0.498401
-0.192495 -0.717868 -0.540003
-0.207325 -0.724138 -0.581605
-0.207325 -0.736677 -0.581605
-0.207325 -0.749216 -0.581605
-0.222155 -0.761755 -0.623208
-0.222155 -0.774295 -0.623208
-0.236985 -0.786834 -0.664810
-0.236985 -0.799373 -0.664810
-0.251815 -0.811912 -0.706413
-0.251815 -0.824451 -0.706413
-0.251815 -0.830721 -0.706413
-0.266645 -0.843260 -0.748015
-0.266645 -0.855799 -0.748015
-0.266645 -0.868339 -0.748015
-0.266645 -0.880878 -0.748015
-0.281475 -0.893417 -0.789618
-0.281475 -0.905956 -0.789618
-0.281475 -0.918495 -0.789618
-0.281475 -0.931034 -0.789618
-0.281475 -0.937304 -0.789618
-0.281475 -0.949843 -0.789618
-0.281475 -0.962382 -0.789618
-0.281475 -0.974922 -0.789618
-0.281475 -0.987461 -0.789618
-0.281475 -1.000000 -0.789618
-0.281475 -1.012539 -0.789618
-0.281475 -1.025078 -0.789618
-0.281475 -1.037617 -0.789618
-0.281475 -1.043887 -0.789618
-0.281475 -1.056426 -0.789618
-0.281475 -1.068965 -0.789618
-0.281475 -1.081505 -0.789618
-0.281475 -1.094044 -0.789618
-0.281475 -1.106583 -0.789618
-0.281475 -1.119122 -0.789618
-0.281475 -1.131661 -0.789618
-0.281475 -1.144201 -0.789618
-0.281475 -1.150470 -0.789618
-0.281475 -1.163009 -0.789618
-0.281475 -1.175549 -0.789618
-0.281475 -1.188088 -0.789618
-0.281475 -1.200627 -0.789618
-0.281475 -1.213166 -0.789618
-0.281475 -1.225705 -0.789618
-0.281475 -1.238245 -0.789618
-0.281475 -1.250784 -0.789618
-0.281475 -1.257053 -0.789618
-0.281475 -1.269593 -0.789618
-0.281475 -1.282132 -0.789618
-0.281475 -1.294671 -0.789618
-0.281475 -1.307210 -0.789618
-0.281475 -1.319749 -0.789618
-0.281475 -1.332289 -0.789618
-0.281475 -1.344828 -0.789618
-0.281475 -1.357367 -0.789618
-0.281475 -1.369906 -0.789618
-0.281475 -1.376176 -0.789618
-0.281475 -1.388715 -0.789618
-0.281475 -1.401254 -0.789618
-0.281475 -1.413793 -0.789618
-0.311135 -1.426332 -0.872823
-0.311135 -1.438871 -0.872823
-0.414945 -1.451411 -1.164040
-0.429775 -1.463950 -1.205643
-0.429775 -1.476489 -1.205643
-0.429775 -1.482759 -1.205643
-0.414945 -1.495298 -1.164040
-0.414945 -1.507837 -1.164040
-0.236985 -1.557994 -0.664810
-0.236985 -1.570533 -0.664810
-0.251815 -1.583072 -0.706413
-0.016551 -0.241379 -0.039997
-0.016551 -0.253919 -0.039997
-0.033438 -0.266458 -0.080808
-0.050325 -0.278997 -0.121619
-0.050325 -0.291536 -0.121619
-0.050325 -0.297806 -0.121619
-0.067213 -0.310345 -0.162429
-0.067213 -0.322884 -0.162429
-0.084100 -0.335423 -0.203240
-0.084100 -0.347962 -0.203240
-0.084100 -0.360502 -0.203240
-0.067213 -0.373041 -0.162429
-0.067213 -0.385580 -0.162429
-0.067213 -0.398119 -0.162429
-0.050325 -0.404389 -0.121619
-0.050325 -0.416928 -0.121619
-0.050325 -0.429467 -0.121619
-0.033438 -0.442006 -0.080808
-0.050325 -0.454545 -0.121619
-0.033438 -0.467085 -0.080808
-0.033438 -0.479624 -0.080808
-0.033438 -0.492163 -0.080808
-0.050325 -0.504702 -0.121619
-0.050325 -0.510972 -0.121619
-0.033438 -0.523511 -0.080808
-0.067213 -0.536050 -0.162429
-0.067213 -0.548589 -0.162429
-0.067213 -0.561128 -0.162429
-0.067213 -0.573668 -0.162429
-0.067213 -0.586207 -0.162429
-0.067213 -0.598746 -0.162429
-0.084100 -0.611285 -0.203240
-0.100987 -0.617555 -0.244051
-0.117875 -0.630094 -0.284862
-0.134762 -0.642633 -0.325672
-0.168537 -0.655172 -0.407294
-0.185424 -0.667712 -0.448104
-0.185424 -0.680251 -0.448104
-0.202311 -0.692790 -0.488915
-0.219199 -0.705329 -0.529726
-0.219199 -0.717868 -0.529726
-0.219199 -0.724138 -0.529726
-0.236086 -0.736677 -0.570536
