0.171252 0.335423 -0.865680
0.171252 0.322884 -0.865680
0.171252 0.310345 -0.865680
0.171252 0.297806 -0.865680
0.171252 0.291536 -0.865680
0.171252 0.278997 -0.865680
0.171252 0.266458 -0.865680
0.171252 0.253918 -0.865680
0.171252 0.247649 -0.865680
0.171252 0.235110 -0.865680
0.171252 0.222571 -0.865680
0.171252 0.210031 -0.865680
0.171252 0.203762 -0.865680
0.171252 0.191223 -0.865680
0.171252 0.178683 -0.865680
0.171252 0.166144 -0.865680
0.171252 0.159875 -0.865680
0.171252 0.147335 -0.865680
0.171252 0.134796 -0.865680
0.171252 0.122257 -0.865680
0.162681 0.115987 -0.822353
0.162681 0.103448 -0.822353
0.162681 0.090909 -0.822353
0.162681 0.078370 -0.822353
0.162681 0.072100 -0.822353
0.162681 0.059561 -0.822353
0.162681 0.047022 -0.822353
0.162681 0.034483 -0.822353
0.162681 0.028213 -0.822353
0.162681 0.015674 -0.822353
0.171252 0.003135 -0.865680
0.171252 -0.009404 -0.865680
0.171252 -0.015674 -0.865680
0.171252 -0.028213 -0.865680
0.171252 -0.040752 -0.865680
0.171252 -0.053292 -0.865680
0.171252 -0.059561 -0.865680
0.179823 -0.072100 -0.909007
0.179823 -0.084640 -0.909007
0.179823 -0.097179 -0.909007
0.179823 -0.103448 -0.909007
0.179823 -0.115987 -0.909007
0.179823 -0.128527 -0.909007
0.179823 -0.141066 -0.909007
0.179823 -0.147335 -0.909007
0.179823 -0.159875 -0.909007
0.188394 -0.172414 -0.952334
0.188394 -0.184953 -0.952334
0.188394 -0.191223 -0.952334
0.188394 -0.203762 -0.952334
0.188394 -0.216301 -0.952334
0.188394 -0.228840 -0.952334
0.188394 -0.235110 -0.952334
0.188394 -0.247649 -0.952334
0.188394 -0.260188 -0.952334
0.188394 -0.272727 -0.952334
0.188394 -0.278997 -0.952334
0.188394 -0.291536 -0.952334
0.188394 -0.304075 -0.952334
0.196966 -0.316614 -0.995662
0.196966 -0.322884 -0.995662
0.196966 -0.335423 -0.995662
0.196966 -0.347962 -0.995662
0.196966 -0.360502 -0.995662
0.196966 -0.366771 -0.995662
0.196966 -0.379310 -0.995662
0.196966 -0.391850 -0.995662
0.196966 -0.404389 -0.995662
0.196966 -0.410658 -0.995662
0.196966 -0.423198 -0.995662
0.196966 -0.435737 -0.995662
0.196966 -0.448276 -0.995662
0.196966 -0.454545 -0.995662
0.196966 -0.467085 -0.995662
0.196966 -0.479624 -0.995662
0.196966 -0.492163 -0.995662
0.196966 -0.498433 -0.995662
0.196966 -0.510972 -0.995662
0.196966 -0.523511 -0.995662
0.196966 -0.536050 -0.995662
0.196966 -0.542320 -0.995662
0.196966 -0.554859 -0.995662
0.196966 -0.567398 -0.995662
0.188394 -0.579937 -0.952334
0.188394 -0.586207 -0.952334
0.188394 -0.598746 -0.952334
0.188394 -0.611285 -0.952334
0.188394 -0.623824 -0.952334
0.188394 -0.630094 -0.952334
0.188394 -0.642633 -0.952334
0.188394 -0.655172 -0.952334
0.188394 -0.667712 -0.952334
0.188394 -0.673981 -0.952334
0.188394 -0.686520 -0.952334
0.188394 -0.699060 -0.952334
0.059827 -1.081505 -0.302428
0.068399 -1.094044 -0.345755
0.068399 -1.106583 -0.345755
0.076970 -1.112853 -0.389083
0.085541 -1.125392 -0.432410
0.094112 -1.137931 -0.475737
0.111254 -1.150470 -0.562391
0.111254 -1.156740 -0.562391
0.119825 -1.169279 -0.605718
0.214108 -1.288401 -1.082316
0.222679 -1.300941 -1.125643
0.231250 -1.313480 -1.168970
0.239821 -1.326019 -1.212297
0.248392 -1.332289 -1.255624
0.256963 -1.344828 -1.298951
0.265535 -1.357367 -1.342278
0.274106 -1.369906 -1.385605
0.282677 -1.376176 -1.428933
0.299819 -1.388715 -1.515587
0.308390 -1.401254 -1.558914
0.308390 -1.413793 -1.558914
0.072060 0.561128 -0.702102
0.072060 0.554859 -0.702102
0.076569 0.542320 -0.746037
0.076569 0.529781 -0.746037
0.081078 0.517241 -0.789974
0.081078 0.510972 -0.789974
0.081078 0.498433 -0.789974
0.085588 0.485893 -0.833909
0.090097 0.473354 -0.877845
0.090097 0.467085 -0.877845
0.090097 0.454545 -0.877845
0.090097 0.442006 -0.877845
0.090097 0.429467 -0.877845
0.094606 0.423198 -0.921781
0.094606 0.410658 -0.921781
0.094606 0.398119 -0.921781
0.094606 0.385580 -0.921781
0.099116 0.379310 -0.965717
0.099116 0.366771 -0.965717
0.099116 0.354232 -0.965717
0.099116 0.341693 -0.965717
0.099116 0.335423 -0.965717
0.099116 0.322884 -0.965717
0.099116 0.310345 -0.965717
0.099116 0.297806 -0.965717
0.099116 0.291536 -0.965717
0.099116 0.278997 -0.965717
0.099116 0.266458 -0.965717
0.099116 0.253918 -0.965717
0.099116 0.247649 -0.965717
0.099116 0.235110 -0.965717
0.099116 0.222571 -0.965717
0.103625 0.210031 -1.009653
0.103625 0.203762 -1.009653
0.103625 0.191223 -1.009653
0.103625 0.178683 -1.009653
0.103625 0.166144 -1.009653
0.103625 0.159875 -1.009653
0.103625 0.147335 -1.009653
0.103625 0.134796 -1.009653
0.103625 0.122257 -1.009653
0.103625 0.115987 -1.009653
0.103625 0.103448 -1.009653
0.103625 0.090909 -1.009653
0.103625 0.078370 -1.009653
0.103625 0.072100 -1.009653
0.103625 0.059561 -1.009653
0.103625 0.047022 -1.009653
0.103625 0.034483 -1.009653
0.103625 0.028213 -1.009653
0.103625 0.015674 -1.009653
0.103625 0.003135 -1.009653
0.103625 -0.009404 -1.009653
0.103625 -0.015674 -1.009653
0.103625 -0.028213 -1.009653
0.103625 -0.040752 -1.009653
0.103625 -0.053292 -1.009653
0.103625 -0.059561 -1.009653
0.103625 -0.072100 -1.009653
0.103625 -0.084640 -1.009653
0.103625 -0.097179 -1.009653
0.103625 -0.103448 -1.009653
0.103625 -0.115987 -1.009653
0.103625 -0.128527 -1.009653
0.103625 -0.141066 -1.009653
0.103625 -0.147335 -1.009653
0.103625 -0.159875 -1.009653
0.103625 -0.172414 -1.009653
0.103625 -0.184953 -1.009653
0.103625 -0.191223 -1.009653
0.103625 -0.203762 -1.009653
0.103625 -0.216301 -1.009653
0.103625 -0.228840 -1.009653
0.103625 -0.235110 -1.009653
0.103625 -0.247649 -1.009653
0.103625 -0.260188 -1.009653
0.103625 -0.272727 -1.009653
0.103625 -0.278997 -1.009653
0.103625 -0.291536 -1.009653
0.103625 -0.304075 -1.009653
0.103625 -0.316614 -1.009653
0.103625 -0.322884 -1.009653
0.103625 -0.335423 -1.009653
0.103625 -0.347962 -1.009653
0.103625 -0.360502 -1.009653
0.099116 -0.366771 -0.965717
0.099116 -0.379310 -0.965717
0.099116 -0.391850 -0.965717
0.099116 -0.404389 -0.965717
0.099116 -0.410658 -0.965717
0.099116 -0.423198 -0.965717
0.099116 -0.435737 -0.965717
0.099116 -0.448276 -0.965717
0.099116 -0.454545 -0.965717
0.099116 -0.467085 -0.965717
0.099116 -0.479624 -0.965717
0.099116 -0.492163 -0.965717
0.099116 -0.498433 -0.965717
0.099116 -0.510972 -0.965717
0.099116 -0.523511 -0.965717
0.099116 -0.536050 -0.965717
0.094606 -0.542320 -0.921781
0.094606 -0.554859 -0.921781
0.094606 -0.567398 -0.921781
0.004420 -1.006270 -0.043062
0.004420 -1.018809 -0.043062
0.008929 -1.025078 -0.086999
0.013438 -1.037617 -0.130934
0.017948 -1.050157 -0.174870
0.022457 -1.062696 -0.218806
0.026966 -1.068965 -0.262742
0.026966 -1.081505 -0.262742
0.031476 -1.094044 -0.306678
0.035985 -1.106583 -0.350614
0.045004 -1.112853 -0.438486
0.045004 -1.125392 -0.438486
0.049513 -1.137931 -0.482422
0.054022 -1.150470 -0.526358
0.058532 -1.156740 -0.570294
0.076569 -1.200627 -0.746037
0.099116 -1.257053 -0.965717
0.103625 -1.269593 -1.009653
0.108134 -1.282132 -1.053589
0.112644 -1.288401 -1.097525
0.117153 -1.300941 -1.141461
0.121662 -1.313480 -1.185397
0.126172 -1.326019 -1.229333
0.130681 -1.332289 -1.273269
0.135190 -1.344828 -1.317205
0.139700 -1.357367 -1.361141
0.144209 -1.369906 -1.405077
0.148718 -1.376176 -1.449013
0.157737 -1.388715 -1.536884
0.157737 -1.401254 -1.536884
-0.171270 0.485893 -0.039604
-0.171270 0.473354 -0.039604
-0.171270 0.467085 -0.039604
-0.171270 0.454545 -0.039604
-0.257332 0.442006 -0.059504
-0.429457 0.429467 -0.099306
-0.429457 0.423198 -0.099306
-0.472489 0.410658 -0.109256
-0.472489 0.398119 -0.109256
-0.472489 0.385580 -0.109256
-0.429457 0.379310 -0.099306
-0.472489 0.366771 -0.109256
-0.472489 0.354232 -0.109256
-0.386426 0.310345 -0.089356
-0.386426 0.297806 -0.089356
-0.300363 0.291536 -0.069455
-0.214301 0.278997 -0.049554
-0.214301 0.266458 -0.049554
-0.214301 0.253918 -0.049554
-0.257332 0.247649 -0.059504
-0.343395 0.235110 -0.079405
-0.343395 0.222571 -0.079405
-0.343395 0.210031 -0.079405
-0.343395 0.203762 -0.079405
-0.343395 0.191223 -0.079405
-0.343395 0.178683 -0.079405
-0.343395 0.166144 -0.079405
-0.343395 0.159875 -0.079405
-0.343395 0.147335 -0.079405
-0.343395 0.134796 -0.079405
-0.343395 0.122257 -0.079405
-0.343395 0.115987 -0.079405
-0.386426 0.103448 -0.089356
-0.386426 0.090909 -0.089356
-0.386426 0.078370 -0.089356
-0.386426 0.072100 -0.089356
-0.386426 0.059561 -0.089356
-0.386426 0.047022 -0.089356
-0.386426 0.034483 -0.089356
-0.386426 0.028213 -0.089356
-0.386426 0.015674 -0.089356
-0.386426 0.003135 -0.089356
-0.386426 -0.009404 -0.089356
-0.386426 -0.015674 -0.089356
-0.386426 -0.028213 -0.089356
-0.386426 -0.040752 -0.089356
-0.386426 -0.053292 -0.089356
-0.386426 -0.059561 -0.089356
-0.386426 -0.072100 -0.089356
-0.386426 -0.084640 -0.089356
-0.386426 -0.097179 -0.089356
-0.386426 -0.103448 -0.089356
-0.386426 -0.115987 -0.089356
-0.386426 -0.128527 -0.089356
-0.386426 -0.141066 -0.089356
-0.386426 -0.147335 -0.089356
-0.386426 -0.159875 -0.089356
-0.386426 -0.172414 -0.089356
-0.386426 -0.184953 -0.089356
-0.386426 -0.191223 -0.089356
-0.386426 -0.203762 -0.089356
-0.386426 -0.216301 -0.089356
-0.386426 -0.228840 -0.089356
-0.386426 -0.235110 -0.089356
-0.386426 -0.247649 -0.089356
-0.343395 -0.260188 -0.079405
-0.300363 -0.272727 -0.069455
-0.343395 -0.278997 -0.079405
-0.343395 -0.291536 -0.079405
-0.343395 -0.304075 -0.079405
-0.343395 -0.316614 -0.079405
-0.343395 -0.322884 -0.079405
-0.343395 -0.335423 -0.079405
-0.343395 -0.347962 -0.079405
-0.343395 -0.360502 -0.079405
-0.343395 -0.366771 -0.079405
-0.343395 -0.379310 -0.079405
-0.343395 -0.391850 -0.079405
-0.343395 -0.404389 -0.079405
-0.300363 -0.410658 -0.069455
-0.343395 -0.423198 -0.079405
-0.343395 -0.435737 -0.079405
-0.343395 -0.448276 -0.079405
-0.343395 -0.454545 -0.079405
-0.343395 -0.467085 -0.079405
-0.343395 -0.479624 -0.079405
-0.343395 -0.492163 -0.079405
-0.300363 -0.498433 -0.069455
-0.343395 -0.510972 -0.079405
-0.343395 -0.523511 -0.079405
-0.343395 -0.536050 -0.079405
-0.343395 -0.542320 -0.079405
-0.300363 -0.554859 -0.069455
-0.300363 -0.567398 -0.069455
-0.300363 -0.579937 -0.069455
-0.300363 -0.586207 -0.069455
-0.300363 -0.598746 -0.069455
-0.300363 -0.611285 -0.069455
-0.300363 -0.623824 -0.069455
-0.300363 -0.630094 -0.069455
-0.300363 -0.642633 -0.069455
-0.300363 -0.655172 -0.069455
-0.257332 -0.667712 -0.059504
-0.257332 -0.673981 -0.059504
-0.300363 -0.686520 -0.069455
-0.300363 -0.699060 -0.069455
-0.300363 -0.711599 -0.069455
-0.257332 -0.717868 -0.059504
-0.257332 -0.730407 -0.059504
-0.257332 -0.742947 -0.059504
-0.257332 -0.755486 -0.059504
-0.257332 -0.761755 -0.059504
-0.257332 -0.774295 -0.059504
-0.257332 -0.786834 -0.059504
-0.257332 -0.799373 -0.059504
-0.257332 -0.805643 -0.059504
-0.257332 -0.818182 -0.059504
-0.257332 -0.830721 -0.059504
-0.257332 -0.843260 -0.059504
-0.257332 -0.849530 -0.059504
-0.257332 -0.862069 -0.059504
-0.257332 -0.874608 -0.059504
-0.257332 -0.887147 -0.059504
-0.257332 -0.893417 -0.059504
-0.257332 -0.905956 -0.059504
-0.257332 -0.918495 -0.059504
-0.257332 -0.931034 -0.059504
-0.257332 -0.937304 -0.059504
-0.257332 -0.949843 -0.059504
-0.257332 -0.962382 -0.059504
-0.257332 -0.974922 -0.059504
-0.257332 -0.981191 -0.059504
-0.257332 -0.993730 -0.059504
-0.257332 -1.006270 -0.059504
-0.257332 -1.018809 -0.059504
-0.257332 -1.025078 -0.059504
-0.257332 -1.037617 -0.059504
-0.214301 -1.050157 -0.049554
-0.214301 -1.062696 -0.049554
-0.257332 -1.068965 -0.059504
-0.257332 -1.081505 -0.059504
-0.300363 -1.094044 -0.069455
-0.343395 -1.106583 -0.079405
-0.386426 -1.112853 -0.089356
-0.429457 -1.125392 -0.099306
-0.472489 -1.137931 -0.109256
-0.515520 -1.150470 -0.119207
-0.730676 -1.200627 -0.168959
-0.773708 -1.213166 -0.178909
-0.214301 -1.238245 -0.049554
-0.859770 -1.244514 -0.198810
-0.902801 -1.257053 -0.208760
-0.945832 -1.269593 -0.218710
-0.214301 -1.282132 -0.049554
-1.031895 -1.288401 -0.238611
-1.074926 -1.300941 -0.248562
-1.117958 -1.313480 -0.258512
-1.160989 -1.326019 -0.268462
-1.204020 -1.332289 -0.278413
-1.290083 -1.344828 -0.298313
-1.333114 -1.357367 -0.308264
-1.376145 -1.369906 -0.318214
-1.419177 -1.376176 -0.328165
-1.462208 -1.388715 -0.338115
-1.505239 -1.401254 -0.348065
-1.548271 -1.413793 -0.358016
-1.591302 -1.420063 -0.367966
-1.634333 -1.432602 -0.377916
-1.634333 -1.445141 -0.377916
-1.677364 -1.457680 -0.387867
-1.763427 -1.463950 -0.407768
-1.763427 -1.476489 -0.407768
-1.763427 -1.489028 -0.407768
-1.806458 -1.501567 -0.417718
-0.214301 -1.507837 -0.049554
-0.171270 -1.520376 -0.039604
-0.171270 -1.532915 -0.039604
-0.171270 -1.545455 -0.039604
-0.171270 -1.551724 -0.039604
-0.171270 -1.564263 -0.039604
-0.214301 -1.576802 -0.049554
-2.193740 -1.589342 -0.507271
0.007347 0.554859 -0.794089
0.007347 0.542320 -0.794089
0.007347 0.529781 -0.794089
0.007756 0.517241 -0.838254
0.007756 0.510972 -0.838254
0.008164 0.498433 -0.882419
0.008164 0.485893 -0.882419
0.008164 0.473354 -0.882419
0.008573 0.467085 -0.926584
0.008573 0.454545 -0.926584
0.008573 0.442006 -0.926584
0.008981 0.429467 -0.970749
0.008981 0.423198 -0.970749
0.008981 0.410658 -0.970749
0.008981 0.398119 -0.970749
0.008981 0.385580 -0.970749
0.008981 0.379310 -0.970749
0.008981 0.366771 -0.970749
0.008981 0.354232 -0.970749
0.008981 0.341693 -0.970749
0.008981 0.335423 -0.970749
0.008981 0.322884 -0.970749
0.008981 0.310345 -0.970749
0.008981 0.297806 -0.970749
0.008981 0.291536 -0.970749
0.008981 0.278997 -0.970749
0.008981 0.266458 -0.970749
0.008981 0.253918 -0.970749
0.008981 0.247649 -0.970749
0.008981 0.235110 -0.970749
0.008981 0.222571 -0.970749
0.008981 0.210031 -0.970749
0.008981 0.203762 -0.970749
0.008981 0.191223 -0.970749
0.008981 0.178683 -0.970749
0.008981 0.166144 -0.970749
0.008981 0.159875 -0.970749
0.008981 0.147335 -0.970749
0.008981 0.134796 -0.970749
0.008981 0.122257 -0.970749
0.008573 0.115987 -0.926584
0.008981 0.103448 -0.970749
0.008981 0.090909 -0.970749
0.008981 0.078370 -0.970749
0.008981 0.072100 -0.970749
0.008981 0.059561 -0.970749
0.008981 0.047022 -0.970749
0.008981 0.034483 -0.970749
0.008981 0.028213 -0.970749
0.008981 0.015674 -0.970749
0.008981 0.003135 -0.970749
0.008981 -0.009404 -0.970749
0.008981 -0.015674 -0.970749
0.008981 -0.028213 -0.970749
0.008981 -0.040752 -0.970749
0.008981 -0.053292 -0.970749
0.008981 -0.059561 -0.970749
0.008981 -0.072100 -0.970749
0.008981 -0.084640 -0.970749
0.008981 -0.097179 -0.970749
0.008981 -0.103448 -0.970749
0.008981 -0.115987 -0.970749
0.008981 -0.128527 -0.970749
0.008981 -0.141066 -0.970749
0.008981 -0.147335 -0.970749
0.008981 -0.159875 -0.970749
0.008981 -0.172414 -0.970749
0.008981 -0.184953 -0.970749
0.008981 -0.191223 -0.970749
0.008981 -0.203762 -0.970749
0.008981 -0.216301 -0.970749
0.008981 -0.228840 -0.970749
-0.002460 -0.937304 0.265867
-0.002051 -0.949843 0.221702
-0.001643 -0.962382 0.177537
-0.001234 -0.974922 0.133372
-0.001234 -0.981191 0.133372
-0.001234 -0.993730 0.133372
0.000400 -1.006270 -0.043287
0.000400 -1.018809 -0.043287
0.000809 -1.025078 -0.087452
0.001218 -1.037617 -0.131617
0.001626 -1.050157 -0.175781
0.002035 -1.062696 -0.219946
0.002444 -1.068965 -0.264111
0.002852 -1.081505 -0.308276
0.003261 -1.094044 -0.352441
0.003261 -1.106583 -0.352441
0.003669 -1.112853 -0.396606
0.004078 -1.125392 -0.440771
0.004487 -1.137931 -0.484935
0.004895 -1.150470 -0.529100
0.005304 -1.156740 -0.573265
0.005712 -1.169279 -0.617430
0.005712 -1.181818 -0.617430
-0.062753 0.554859 -0.747326
-0.062753 0.542320 -0.747326
-0.066449 0.529781 -0.791338
-0.070145 0.517241 -0.835350
-0.070145 0.510972 -0.835350
-0.070145 0.498433 -0.835350
-0.070145 0.485893 -0.835350
-0.073840 0.473354 -0.879362
-0.073840 0.467085 -0.879362
-0.073840 0.454545 -0.879362
-0.077536 0.442006 -0.923374
-0.077536 0.429467 -0.923374
-0.077536 0.423198 -0.923374
-0.077536 0.410658 -0.923374
-0.077536 0.398119 -0.923374
-0.077536 0.385580 -0.923374
-0.077536 0.379310 -0.923374
-0.077536 0.366771 -0.923374
-0.077536 0.354232 -0.923374
-0.077536 0.341693 -0.923374
-0.077536 0.335423 -0.923374
-0.077536 0.322884 -0.923374
-0.077536 0.310345 -0.923374
-0.081232 0.297806 -0.967386
-0.081232 0.291536 -0.967386
-0.081232 0.278997 -0.967386
-0.081232 0.266458 -0.967386
-0.081232 0.253918 -0.967386
-0.081232 0.247649 -0.967386
-0.081232 0.235110 -0.967386
-0.081232 0.222571 -0.967386
-0.081232 0.210031 -0.967386
-0.077536 0.203762 -0.923374
-0.077536 0.191223 -0.923374
-0.077536 0.178683 -0.923374
-0.077536 0.166144 -0.923374
-0.077536 0.159875 -0.923374
-0.077536 0.147335 -0.923374
-0.077536 0.134796 -0.923374
-0.077536 0.122257 -0.923374
-0.077536 0.115987 -0.923374
-0.073840 0.103448 -0.879362
-0.077536 0.090909 -0.923374
-0.077536 0.078370 -0.923374
-0.077536 0.072100 -0.923374
-0.077536 0.059561 -0.923374
-0.073840 0.047022 -0.879362
-0.073840 0.034483 -0.879362
-0.073840 0.028213 -0.879362
-0.073840 0.015674 -0.879362
-0.070145 0.003135 -0.835350
-0.070145 -0.009404 -0.835350
-0.040579 -0.304075 -0.483255
-0.036883 -0.316614 -0.439244
-0.036883 -0.322884 -0.439244
-0.036883 -0.335423 -0.439244
-0.036883 -0.347962 -0.439244
-0.033188 -0.360502 -0.395232
0.037030 -0.893417 0.440993
0.033335 -0.905956 0.396981
0.029639 -0.918495 0.352970
0.025943 -0.931034 0.308958
0.022248 -0.937304 0.264946
0.018552 -0.949843 0.220934
0.014856 -0.962382 0.176922
0.011161 -0.974922 0.132910
0.003769 -0.981191 0.044887
0.003769 -0.993730 0.044887
-0.011014 -1.006270 -0.131161
-0.011014 -1.018809 -0.131161
-0.011014 -1.025078 -0.131161
-0.011014 -1.037617 -0.131161
-0.014709 -1.050157 -0.175172
-0.014709 -1.062696 -0.175172
-0.018405 -1.068965 -0.219184
-0.022101 -1.081505 -0.263196
-0.029492 -1.094044 -0.351220
-0.029492 -1.106583 -0.351220
-0.036883 -1.112853 -0.439244
-0.036883 -1.125392 -0.439244
-0.040579 -1.137931 -0.483255
-0.047971 -1.150470 -0.571279
-0.047971 -1.156740 -0.571279
-0.051666 -1.169279 -0.615291
-0.092319 -1.288401 -1.099421
-0.096015 -1.300941 -1.143433
-0.121885 -1.376176 -1.451516
-0.131903 0.554859 -0.738266
-0.131903 0.542320 -0.738266
-0.131903 0.529781 -0.738266
-0.131903 0.517241 -0.738266
-0.139671 0.510972 -0.781744
-0.139671 0.498433 -0.781744
-0.139671 0.485893 -0.781744
-0.139671 0.473354 -0.781744
-0.139671 0.467085 -0.781744
-0.147439 0.454545 -0.825222
-0.147439 0.442006 -0.825222
-0.147439 0.429467 -0.825222
-0.155207 0.423198 -0.868701
-0.155207 0.410658 -0.868701
-0.155207 0.398119 -0.868701
-0.155207 0.385580 -0.868701
-0.155207 0.379310 -0.868701
-0.155207 0.366771 -0.868701
-0.155207 0.354232 -0.868701
-0.155207 0.341693 -0.868701
-0.155207 0.335423 -0.868701
-0.155207 0.322884 -0.868701
-0.155207 0.310345 -0.868701
-0.155207 0.297806 -0.868701
-0.155207 0.291536 -0.868701
-0.155207 0.278997 -0.868701
-0.155207 0.266458 -0.868701
-0.155207 0.253918 -0.868701
-0.155207 0.247649 -0.868701
-0.155207 0.235110 -0.868701
-0.155207 0.222571 -0.868701
-0.155207 0.210031 -0.868701
-0.155207 0.203762 -0.868701
-0.155207 0.191223 -0.868701
-0.155207 0.178683 -0.868701
-0.155207 0.166144 -0.868701
-0.155207 0.159875 -0.868701
-0.155207 0.147335 -0.868701
-0.147439 0.134796 -0.825222
-0.147439 0.122257 -0.825222
-0.139671 0.115987 -0.781744
-0.139671 0.103448 -0.781744
-0.139671 0.090909 -0.781744
-0.147439 0.078370 -0.825222
-0.147439 0.072100 -0.825222
-0.147439 0.059561 -0.825222
-0.139671 0.047022 -0.781744
-0.131903 0.034483 -0.738266
-0.131903 0.028213 -0.738266
-0.131903 0.015674 -0.738266
-0.131903 0.003135 -0.738266
-0.069758 -0.347962 -0.390440
-0.069758 -0.360502 -0.390440
-0.061990 -0.366771 -0.346962
-0.061990 -0.379310 -0.346962
-0.061990 -0.391850 -0.346962
-0.061990 -0.404389 -0.346962
-0.061990 -0.423198 -0.346962
-0.061990 -0.435737 -0.346962
0.000154 -0.642633 0.000864
0.070067 -0.893417 0.392168
0.070067 -0.905956 0.392168
0.062299 -0.918495 0.348690
0.062299 -0.931034 0.348690
0.054531 -0.937304 0.305212
0.038995 -0.949843 0.218256
-0.023150 -0.962382 -0.129570
-0.023150 -0.974922 -0.129570
-0.023150 -0.981191 -0.129570
-0.030918 -0.993730 -0.173049
-0.030918 -1.006270 -0.173049
-0.030918 -1.018809 -0.173049
-0.030918 -1.025078 -0.173049
-0.030918 -1.037617 -0.173049
-0.030918 -1.050157 -0.173049
-0.038686 -1.062696 -0.216527
-0.046454 -1.068965 -0.260005
-0.054222 -1.081505 -0.303483
-0.061990 -1.094044 -0.346962
-0.069758 -1.106583 -0.390440
-0.077526 -1.112853 -0.433918
-0.085294 -1.125392 -0.477396
-0.085294 -1.137931 -0.477396
-0.093062 -1.150470 -0.520875
-0.100830 -1.156740 -0.564353
-0.108599 -1.169279 -0.607831
-0.116367 -1.181818 -0.651309
-0.201815 -1.300941 -1.129570
-0.209583 -1.313480 -1.173048
-0.240656 -1.357367 -1.346961
-0.248424 -1.369906 -1.390440
-0.256192 -1.376176 -1.433918
-0.263960 -1.388715 -1.477396
-0.271728 -1.401254 -1.520874
-0.318336 -1.457680 -1.781744
-0.326104 -1.463950 -1.825222
-0.326104 -1.476489 -1.825222
-0.333872 -1.489028 -1.868700
-0.427089 -1.620690 -2.390440
-0.176365 0.554859 -0.637684
-0.188138 0.542320 -0.680252
-0.188138 0.529781 -0.680252
-0.188138 0.517241 -0.680252
-0.199911 0.510972 -0.722821
-0.199911 0.498433 -0.722821
-0.199911 0.485893 -0.722821
-0.199911 0.473354 -0.722821
-0.211685 0.467085 -0.765390
-0.211685 0.454545 -0.765390
-0.211685 0.442006 -0.765390
-0.211685 0.429467 -0.765390
-0.223458 0.423198 -0.807958
-0.223458 0.410658 -0.807958
-0.223458 0.398119 -0.807958
-0.223458 0.385580 -0.807958
-0.223458 0.379310 -0.807958
-0.223458 0.366771 -0.807958
-0.223458 0.354232 -0.807958
-0.223458 0.341693 -0.807958
-0.223458 0.335423 -0.807958
-0.223458 0.322884 -0.807958
-0.223458 0.310345 -0.807958
-0.223458 0.297806 -0.807958
-0.223458 0.291536 -0.807958
-0.211685 0.253918 -0.765390
-0.211685 0.247649 -0.765390
-0.211685 0.235110 -0.765390
-0.211685 0.222571 -0.765390
-0.199911 0.210031 -0.722821
-0.199911 0.203762 -0.722821
-0.199911 0.191223 -0.722821
-0.199911 0.178683 -0.722821
-0.199911 0.166144 -0.722821
-0.188138 0.159875 -0.680252
-0.188138 0.147335 -0.680252
-0.188138 0.134796 -0.680252
-0.188138 0.122257 -0.680252
-0.188138 0.115987 -0.680252
-0.176365 0.103448 -0.637684
-0.176365 0.090909 -0.637684
-0.188138 0.078370 -0.680252
-0.188138 0.072100 -0.680252
-0.188138 0.059561 -0.680252
-0.176365 0.047022 -0.637684
-0.176365 0.034483 -0.637684
-0.176365 0.028213 -0.637684
-0.176365 0.015674 -0.637684
-0.164592 0.003135 -0.595115
-0.164592 -0.009404 -0.595115
-0.164592 -0.015674 -0.595115
-0.152818 -0.028213 -0.552547
-0.152818 -0.040752 -0.552547
-0.152818 -0.053292 -0.552547
-0.152818 -0.084640 -0.552547
-0.141045 -0.097179 -0.509978
-0.141045 -0.103448 -0.509978
-0.141045 -0.115987 -0.509978
-0.141045 -0.128527 -0.509978
-0.129272 -0.172414 -0.467409
-0.117499 -0.184953 -0.424840
-0.117499 -0.191223 -0.424840
-0.129272 -0.203762 -0.467409
-0.129272 -0.216301 -0.467409
-0.117499 -0.228840 -0.424840
-0.117499 -0.235110 -0.424840
-0.105725 -0.247649 -0.382272
-0.105725 -0.260188 -0.382272
-0.105725 -0.272727 -0.382272
-0.105725 -0.278997 -0.382272
-0.070406 -0.467085 -0.254566
-0.070406 -0.479624 -0.254566
-0.070406 -0.492163 -0.254566
-0.046859 -0.554859 -0.169428
-0.046859 -0.567398 -0.169428
-0.046859 -0.579937 -0.169428
-0.046859 -0.586207 -0.169428
-0.035086 -0.598746 -0.126860
-0.035086 -0.611285 -0.126860
-0.023313 -0.623824 -0.084291
-0.023313 -0.630094 -0.084291
0.106193 -0.667712 0.383964
0.106193 -0.673981 0.383964
0.106193 -0.686520 0.383964
0.106193 -0.699060 0.383964
0.106193 -0.711599 0.383964
0.106193 -0.717868 0.383964
0.106193 -0.730407 0.383964
0.094420 -0.742947 0.341396
0.094420 -0.755486 0.341396
0.094420 -0.761755 0.341396
0.094420 -0.774295 0.341396
0.094420 -0.786834 0.341396
0.094420 -0.799373 0.341396
0.094420 -0.805643 0.341396
0.106193 -0.818182 0.383964
0.106193 -0.830721 0.383964
0.106193 -0.843260 0.383964
0.106193 -0.849530 0.383964
0.094420 -0.862069 0.341396
-0.023313 -0.918495 -0.084291
-0.035086 -0.931034 -0.126860
-0.035086 -0.937304 -0.126860
-0.035086 -0.949843 -0.126860
-0.046859 -0.962382 -0.169428
-0.046859 -0.974922 -0.169428
-0.046859 -0.981191 -0.169428
-0.046859 -0.993730 -0.169428
-0.046859 -1.006270 -0.169428
-0.058632 -1.018809 -0.211997
-0.058632 -1.025078 -0.211997
-0.058632 -1.037617 -0.211997
-0.046859 -1.050157 -0.169428
-0.058632 -1.062696 -0.211997
-0.070406 -1.068965 -0.254566
-0.070406 -1.081505 -0.254566
-0.082179 -1.094044 -0.297134
-0.105725 -1.106583 -0.382272
-0.117499 -1.112853 -0.424840
-0.129272 -1.125392 -0.467409
-0.129272 -1.137931 -0.467409
-0.141045 -1.150470 -0.509978
-0.141045 -1.156740 -0.509978
-0.164592 -1.169279 -0.595115
-0.188138 -1.181818 -0.680252
-0.188138 -1.194357 -0.680252
-0.494243 -1.476489 -1.787037
-0.600202 -1.576802 -2.170156
-0.600202 -1.589342 -2.170156
-0.234838 0.542320 -0.618544
-0.234838 0.529781 -0.618544
-0.234838 0.517241 -0.618544
-0.250514 0.510972 -0.659835
-0.250514 0.498433 -0.659835
-0.250514 0.485893 -0.659835
-0.250514 0.473354 -0.659835
-0.266191 0.467085 -0.701126
-0.266191 0.454545 -0.701126
-0.266191 0.442006 -0.701126
-0.266191 0.429467 -0.701126
-0.266191 0.423198 -0.701126
-0.266191 0.410658 -0.701126
-0.281868 0.385580 -0.742417
-0.281868 0.379310 -0.742417
-0.266191 0.366771 -0.701126
-0.266191 0.354232 -0.701126
-0.266191 0.341693 -0.701126
-0.266191 0.335423 -0.701126
-0.266191 0.322884 -0.701126
-0.266191 0.310345 -0.701126
-0.266191 0.297806 -0.701126
-0.266191 0.291536 -0.701126
-0.250514 0.278997 -0.659835
-0.250514 0.266458 -0.659835
-0.250514 0.253918 -0.659835
-0.250514 0.235110 -0.659835
-0.250514 0.222571 -0.659835
-0.234838 0.210031 -0.618544
-0.234838 0.203762 -0.618544
-0.234838 0.191223 -0.618544
-0.234838 0.178683 -0.618544
-0.219161 0.166144 -0.577253
-0.219161 0.159875 -0.577253
-0.219161 0.147335 -0.577253
-0.219161 0.134796 -0.577253
-0.219161 0.122257 -0.577253
-0.219161 0.115987 -0.577253
-0.203485 0.103448 -0.535962
-0.203485 0.090909 -0.535962
-0.203485 0.078370 -0.535962
-0.203485 0.072100 -0.535962
-0.203485 0.059561 -0.535962
-0.187808 0.047022 -0.494671
-0.203485 0.034483 -0.535962
-0.187808 0.028213 -0.494671
-0.187808 0.015674 -0.494671
-0.187808 0.003135 -0.494671
-0.187808 -0.009404 -0.494671
-0.187808 -0.015674 -0.494671
-0.187808 -0.028213 -0.494671
-0.187808 -0.040752 -0.494671
-0.172131 -0.053292 -0.453380
-0.172131 -0.059561 -0.453380
-0.172131 -0.072100 -0.453380
-0.172131 -0.084640 -0.453380
-0.172131 -0.097179 -0.453380
-0.172131 -0.103448 -0.453380
-0.156455 -0.115987 -0.412089
-0.156455 -0.128527 -0.412089
-0.156455 -0.141066 -0.412089
-0.172131 -0.147335 -0.453380
-0.172131 -0.159875 -0.453380
-0.172131 -0.172414 -0.453380
-0.172131 -0.184953 -0.453380
-0.172131 -0.191223 -0.453380
-0.172131 -0.203762 -0.453380
-0.172131 -0.216301 -0.453380
-0.172131 -0.228840 -0.453380
-0.172131 -0.235110 -0.453380
-0.172131 -0.247649 -0.453380
-0.172131 -0.260188 -0.453380
-0.140778 -0.272727 -0.370798
-0.125101 -0.278997 -0.329507
-0.125101 -0.291536 -0.329507
-0.125101 -0.304075 -0.329507
-0.125101 -0.316614 -0.329507
-0.125101 -0.322884 -0.329507
-0.125101 -0.335423 -0.329507
-0.109425 -0.347962 -0.288216
-0.109425 -0.360502 -0.288216
-0.109425 -0.366771 -0.288216
-0.109425 -0.379310 -0.288216
-0.109425 -0.391850 -0.288216
-0.109425 -0.404389 -0.288216
-0.109425 -0.410658 -0.288216
-0.093748 -0.423198 -0.246925
-0.093748 -0.435737 -0.246925
-0.093748 -0.448276 -0.246925
-0.093748 -0.454545 -0.246925
-0.093748 -0.467085 -0.246925
-0.093748 -0.479624 -0.246925
-0.078071 -0.492163 -0.205634
-0.078071 -0.498433 -0.205634
-0.078071 -0.510972 -0.205634
-0.062395 -0.523511 -0.164343
-0.062395 -0.536050 -0.164343
-0.062395 -0.542320 -0.164343
-0.062395 -0.554859 -0.164343
-0.062395 -0.567398 -0.164343
-0.046718 -0.598746 -0.123052
-0.046718 -0.611285 -0.123052
-0.046718 -0.623824 -0.123052
0.141401 -0.655172 0.372440
0.141401 -0.667712 0.372440
0.157078 -0.673981 0.413731
0.157078 -0.686520 0.413731
0.141401 -0.699060 0.372440
0.141401 -0.711599 0.372440
0.141401 -0.717868 0.372440
0.125725 -0.730407 0.331149
0.125725 -0.742947 0.331149
0.141401 -0.755486 0.372440
0.141401 -0.761755 0.372440
0.141401 -0.774295 0.372440
0.141401 -0.786834 0.372440
0.125725 -0.799373 0.331149
0.125725 -0.805643 0.331149
-0.031042 -0.893417 -0.081761
-0.031042 -0.905956 -0.081761
-0.046718 -0.918495 -0.123052
-0.046718 -0.931034 -0.123052
-0.062395 -0.937304 -0.164343
-0.062395 -0.949843 -0.164343
-0.062395 -0.962382 -0.164343
-0.062395 -0.974922 -0.164343
-0.062395 -0.981191 -0.164343
-0.078071 -0.993730 -0.205634
-0.078071 -1.006270 -0.205634
-0.078071 -1.018809 -0.205634
-0.093748 -1.025078 -0.246925
-0.093748 -1.037617 -0.246925
-0.093748 -1.050157 -0.246925
-0.078071 -1.062696 -0.205634
-0.078071 -1.068965 -0.205634
-0.093748 -1.081505 -0.246925
-0.109425 -1.094044 -0.288216
-0.125101 -1.106583 -0.329507
-0.140778 -1.112853 -0.370798
-0.156455 -1.125392 -0.412089
-0.172131 -1.137931 -0.453380
-0.187808 -1.150470 -0.494671
-0.203485 -1.156740 -0.535962
-0.203485 -1.169279 -0.535962
-0.799196 -1.589342 -2.105019
-0.799196 -1.595611 -2.105019
-0.830550 -1.608150 -2.187601
-0.846226 -1.620690 -2.228892
-0.271836 0.542320 -0.554399
-0.291280 0.529781 -0.594055
-0.291280 0.517241 -0.594055
-0.291280 0.510972 -0.594055
-0.291280 0.498433 -0.594055
-0.310725 0.485893 -0.633711
-0.310725 0.473354 -0.633711
-0.310725 0.467085 -0.633711
-0.310725 0.454545 -0.633711
-0.310725 0.442006 -0.633711
-0.310725 0.429467 -0.633711
-0.330169 0.423198 -0.673367
-0.330169 0.410658 -0.673367
-0.310725 0.398119 -0.633711
-0.310725 0.385580 -0.633711
-0.330169 0.379310 -0.673367
-0.310725 0.366771 -0.633711
-0.310725 0.354232 -0.633711
-0.310725 0.341693 -0.633711
-0.310725 0.335423 -0.633711
-0.310725 0.322884 -0.633711
-0.310725 0.310345 -0.633711
-0.310725 0.297806 -0.633711
-0.291280 0.291536 -0.594055
-0.291280 0.278997 -0.594055
-0.291280 0.266458 -0.594055
-0.291280 0.253918 -0.594055
-0.291280 0.247649 -0.594055
-0.271836 0.235110 -0.554399
-0.271836 0.222571 -0.554399
-0.271836 0.210031 -0.554399
-0.271836 0.203762 -0.554399
-0.271836 0.191223 -0.554399
-0.271836 0.178683 -0.554399
-0.252391 0.166144 -0.514742
-0.252391 0.159875 -0.514742
-0.252391 0.147335 -0.514742
-0.252391 0.134796 -0.514742
-0.232947 0.122257 -0.475086
-0.232947 0.115987 -0.475086
-0.232947 0.103448 -0.475086
-0.232947 0.090909 -0.475086
-0.232947 0.078370 -0.475086
-0.232947 0.072100 -0.475086
-0.213502 0.059561 -0.435430
-0.213502 0.047022 -0.435430
-0.213502 0.034483 -0.435430
-0.213502 0.028213 -0.435430
-0.213502 0.015674 -0.435430
-0.213502 0.003135 -0.435430
-0.213502 -0.009404 -0.435430
-0.194058 -0.015674 -0.395774
-0.194058 -0.028213 -0.395774
-0.194058 -0.040752 -0.395774
-0.194058 -0.053292 -0.395774
-0.174614 -0.059561 -0.356118
-0.174614 -0.072100 -0.356118
-0.174614 -0.084640 -0.356118
-0.174614 -0.097179 -0.356118
-0.174614 -0.103448 -0.356118
-0.174614 -0.115987 -0.356118
-0.174614 -0.128527 -0.356118
-0.194058 -0.141066 -0.395774
-0.194058 -0.147335 -0.395774
-0.194058 -0.159875 -0.395774
-0.194058 -0.172414 -0.395774
-0.194058 -0.184953 -0.395774
-0.194058 -0.191223 -0.395774
-0.194058 -0.203762 -0.395774
-0.194058 -0.216301 -0.395774
-0.194058 -0.228840 -0.395774
-0.194058 -0.235110 -0.395774
-0.194058 -0.247649 -0.395774
-0.194058 -0.260188 -0.395774
-0.194058 -0.272727 -0.395774
-0.194058 -0.278997 -0.395774
-0.194058 -0.291536 -0.395774
-0.194058 -0.304075 -0.395774
-0.174614 -0.316614 -0.356118
-0.174614 -0.322884 -0.356118
-0.155169 -0.335423 -0.316461
-0.155169 -0.347962 -0.316461
-0.155169 -0.360502 -0.316461
-0.155169 -0.366771 -0.316461
-0.155169 -0.379310 -0.316461
-0.155169 -0.391850 -0.316461
-0.155169 -0.404389 -0.316461
-0.155169 -0.410658 -0.316461
-0.155169 -0.423198 -0.316461
-0.155169 -0.435737 -0.316461
-0.155169 -0.448276 -0.316461
-0.155169 -0.454545 -0.316461
-0.155169 -0.467085 -0.316461
-0.155169 -0.479624 -0.316461
-0.155169 -0.492163 -0.316461
-0.155169 -0.498433 -0.316461
-0.135725 -0.510972 -0.276805
-0.135725 -0.523511 -0.276805
-0.135725 -0.536050 -0.276805
-0.116280 -0.542320 -0.237149
-0.116280 -0.554859 -0.237149
-0.116280 -0.567398 -0.237149
-0.116280 -0.579937 -0.237149
-0.116280 -0.586207 -0.237149
-0.116280 -0.598746 -0.237149
-0.116280 -0.611285 -0.237149
-0.116280 -0.623824 -0.237149
-0.096836 -0.630094 -0.197493
-0.096836 -0.642633 -0.197493
-0.096836 -0.655172 -0.197493
-0.096836 -0.667712 -0.197493
-0.077391 -0.673981 -0.157836
-0.077391 -0.686520 -0.157836
-0.077391 -0.699060 -0.157836
0.155942 -0.730407 0.318038
0.155942 -0.742947 0.318038
0.175387 -0.755486 0.357694
0.175387 -0.761755 0.357694
0.175387 -0.774295 0.357694
0.175387 -0.786834 0.357694
0.155942 -0.799373 0.318038
0.155942 -0.805643 0.318038
0.155942 -0.818182 0.318038
0.155942 -0.830721 0.318038
0.155942 -0.843260 0.318038
0.155942 -0.849530 0.318038
0.155942 -0.862069 0.318038
0.155942 -0.874608 0.318038
-0.019058 -0.887147 -0.038868
-0.057947 -0.893417 -0.118180
-0.057947 -0.905956 -0.118180
-0.057947 -0.918495 -0.118180
-0.077391 -0.931034 -0.157836
-0.077391 -0.937304 -0.157836
-0.077391 -0.949843 -0.157836
-0.077391 -0.962382 -0.157836
-0.096836 -0.974922 -0.197493
-0.096836 -0.981191 -0.197493
-0.096836 -0.993730 -0.197493
-0.116280 -1.006270 -0.237149
-0.116280 -1.018809 -0.237149
-0.116280 -1.025078 -0.237149
-0.116280 -1.037617 -0.237149
-0.116280 -1.050157 -0.237149
-0.116280 -1.062696 -0.237149
-0.116280 -1.068965 -0.237149
-0.116280 -1.081505 -0.237149
-0.116280 -1.094044 -0.237149
-0.135725 -1.106583 -0.276805
-0.155169 -1.112853 -0.316461
-0.194058 -1.125392 -0.395774
-0.213502 -1.137931 -0.435430
-0.232947 -1.150470 -0.475086
-0.232947 -1.156740 -0.475086
-0.271836 -1.169279 -0.554399
-0.291280 -1.181818 -0.594055
-0.991280 -1.589342 -2.021678
-0.991280 -1.595611 -2.021678
-0.322160 0.517241 -0.526750
-0.322160 0.510972 -0.526750
-0.322160 0.498433 -0.526750
-0.322160 0.485893 -0.526750
-0.322160 0.473354 -0.526750
-0.345204 0.467085 -0.564428
-0.345204 0.454545 -0.564428
-0.345204 0.442006 -0.564428
-0.368248 0.429467 -0.602107
-0.368248 0.423198 -0.602107
-0.345204 0.410658 -0.564428
-0.345204 0.398119 -0.564428
-0.345204 0.385580 -0.564428
-0.322160 0.354232 -0.526750
-0.322160 0.341693 -0.526750
-0.322160 0.335423 -0.526750
-0.322160 0.322884 -0.526750
-0.322160 0.310345 -0.526750
-0.322160 0.297806 -0.526750
-0.322160 0.291536 -0.526750
-0.299115 0.278997 -0.489072
-0.299115 0.266458 -0.489072
-0.299115 0.253918 -0.489072
-0.299115 0.247649 -0.489072
-0.299115 0.235110 -0.489072
-0.276071 0.222571 -0.451393
-0.276071 0.210031 -0.451393
-0.276071 0.203762 -0.451393
-0.276071 0.191223 -0.451393
-0.276071 0.178683 -0.451393
-0.276071 0.166144 -0.451393
-0.276071 0.159875 -0.451393
-0.253027 0.147335 -0.413714
-0.253027 0.134796 -0.413714
-0.253027 0.122257 -0.413714
-0.253027 0.115987 -0.413714
-0.229983 0.103448 -0.376036
-0.229983 0.090909 -0.376036
-0.253027 0.078370 -0.413714
-0.253027 0.072100 -0.413714
-0.229983 0.059561 -0.376036
-0.229983 0.047022 -0.376036
-0.206939 0.028213 -0.338358
-0.206939 0.015674 -0.338358
-0.206939 0.003135 -0.338358
-0.206939 -0.009404 -0.338358
-0.206939 -0.015674 -0.338358
-0.206939 -0.028213 -0.338358
-0.206939 -0.040752 -0.338358
-0.206939 -0.053292 -0.338358
-0.206939 -0.059561 -0.338358
-0.206939 -0.072100 -0.338358
-0.206939 -0.084640 -0.338358
-0.206939 -0.097179 -0.338358
-0.206939 -0.103448 -0.338358
-0.206939 -0.115987 -0.338358
-0.206939 -0.128527 -0.338358
-0.206939 -0.141066 -0.338358
-0.206939 -0.147335 -0.338358
-0.206939 -0.159875 -0.338358
-0.206939 -0.172414 -0.338358
-0.206939 -0.184953 -0.338358
-0.229983 -0.191223 -0.376036
-0.229983 -0.203762 -0.376036
-0.229983 -0.216301 -0.376036
-0.229983 -0.228840 -0.376036
-0.229983 -0.235110 -0.376036
-0.206939 -0.247649 -0.338358
-0.229983 -0.260188 -0.376036
-0.229983 -0.272727 -0.376036
-0.229983 -0.278997 -0.376036
-0.229983 -0.291536 -0.376036
-0.229983 -0.304075 -0.376036
-0.206939 -0.316614 -0.338358
-0.206939 -0.322884 -0.338358
-0.229983 -0.335423 -0.376036
-0.229983 -0.347962 -0.376036
-0.206939 -0.360502 -0.338358
-0.206939 -0.366771 -0.338358
-0.183895 -0.379310 -0.300679
-0.183895 -0.391850 -0.300679
-0.183895 -0.404389 -0.300679
-0.183895 -0.410658 -0.300679
-0.183895 -0.423198 -0.300679
-0.183895 -0.435737 -0.300679
-0.183895 -0.448276 -0.300679
-0.183895 -0.454545 -0.300679
-0.183895 -0.467085 -0.300679
-0.183895 -0.479624 -0.300679
-0.183895 -0.492163 -0.300679
-0.183895 -0.498433 -0.300679
-0.160851 -0.510972 -0.263000
-0.160851 -0.523511 -0.263000
-0.160851 -0.536050 -0.263000
-0.183895 -0.542320 -0.300679
-0.183895 -0.554859 -0.300679
-0.183895 -0.567398 -0.300679
-0.160851 -0.579937 -0.263000
-0.160851 -0.586207 -0.263000
-0.160851 -0.598746 -0.263000
-0.160851 -0.611285 -0.263000
-0.137807 -0.623824 -0.225322
-0.137807 -0.630094 -0.225322
-0.137807 -0.642633 -0.225322
-0.137807 -0.655172 -0.225322
-0.137807 -0.667712 -0.225322
-0.137807 -0.673981 -0.225322
-0.137807 -0.686520 -0.225322
-0.137807 -0.699060 -0.225322
-0.114762 -0.711599 -0.187643
-0.114762 -0.717868 -0.187643
-0.114762 -0.730407 -0.187643
-0.091718 -0.742947 -0.149965
-0.091718 -0.755486 -0.149965
-0.091718 -0.761755 -0.149965
-0.091718 -0.774295 -0.149965
0.207855 -0.786834 0.339855
0.184811 -0.799373 0.302177
0.184811 -0.805643 0.302177
0.184811 -0.818182 0.302177
0.184811 -0.830721 0.302177
0.184811 -0.843260 0.302177
0.161767 -0.849530 0.264498
0.138723 -0.862069 0.226820
-0.045630 -0.874608 -0.074608
-0.068674 -0.887147 -0.112287
-0.091718 -0.893417 -0.149965
-0.091718 -0.905956 -0.149965
-0.091718 -0.918495 -0.149965
-0.114762 -0.931034 -0.187643
-0.114762 -0.937304 -0.187643
-0.114762 -0.949843 -0.187643
-0.114762 -0.962382 -0.187643
-0.137807 -0.974922 -0.225322
-0.114762 -0.981191 -0.187643
-0.114762 -0.993730 -0.187643
-0.114762 -1.006270 -0.187643
-0.137807 -1.018809 -0.225322
-0.137807 -1.025078 -0.225322
-0.160851 -1.037617 -0.263000
-0.160851 -1.050157 -0.263000
-0.160851 -1.062696 -0.263000
-0.137807 -1.068965 -0.225322
-0.137807 -1.081505 -0.225322
-0.160851 -1.094044 -0.263000
-0.183895 -1.106583 -0.300679
-0.183895 -1.112853 -0.300679
-0.206939 -1.125392 -0.338358
-0.229983 -1.137931 -0.376036
-0.253027 -1.150470 -0.413714
-0.299115 -1.156740 -0.489072
-0.322160 -1.169279 -0.526750
-0.391292 -1.200627 -0.639785
-0.414336 -1.213166 -0.677464
-0.483468 -1.244514 -0.790499
-0.506512 -1.257053 -0.828178
-0.575645 -1.288401 -0.941213
-0.598689 -1.300941 -0.978892
-0.713910 -1.357367 -1.167284
-0.713910 -1.369906 -1.167284
-0.736954 -1.376176 -1.204963
-0.783042 -1.388715 -1.280320
-0.783042 -1.401254 -1.280320
-0.829130 -1.413793 -1.355677
-0.852174 -1.420063 -1.393355
-0.875218 -1.432602 -1.431034
-0.875218 -1.445141 -1.431034
-1.174792 -1.589342 -1.920855
-1.174792 -1.595611 -1.920855
-1.197836 -1.608150 -1.958533
-1.197836 -1.620690 -1.958533
-0.174208 0.485893 -0.023523
-0.174208 0.473354 -0.023523
-0.174208 0.467085 -0.023523
-0.174208 0.454545 -0.023523
-0.217977 0.442006 -0.029433
-0.436825 0.429467 -0.058983
-0.480595 0.423198 -0.064894
-0.436825 0.410658 -0.058983
-0.480595 0.398119 -0.064894
-0.480595 0.385580 -0.064894
-0.480595 0.379310 -0.064894
-0.436825 0.366771 -0.058983
-0.480595 0.354232 -0.064894
-0.436825 0.341693 -0.058983
-0.393056 0.297806 -0.053073
-0.393056 0.291536 -0.053073
-0.349286 0.278997 -0.047163
-0.349286 0.266458 -0.047163
-0.349286 0.253918 -0.047163
-0.393056 0.247649 -0.053073
-0.393056 0.235110 -0.053073
-0.393056 0.222571 -0.053073
-0.393056 0.210031 -0.053073
-0.393056 0.203762 -0.053073
-0.393056 0.191223 -0.053073
-0.393056 0.178683 -0.053073
-0.393056 0.166144 -0.053073
-0.393056 0.159875 -0.053073
-0.393056 0.147335 -0.053073
-0.393056 0.134796 -0.053073
-0.393056 0.122257 -0.053073
-0.393056 0.115987 -0.053073
-0.393056 0.103448 -0.053073
-0.393056 0.090909 -0.053073
-0.393056 0.078370 -0.053073
-0.393056 0.072100 -0.053073
-0.393056 0.059561 -0.053073
-0.393056 0.047022 -0.053073
-0.393056 0.034483 -0.053073
-0.393056 0.028213 -0.053073
-0.393056 0.015674 -0.053073
-0.393056 0.003135 -0.053073
-0.393056 -0.009404 -0.053073
-0.393056 -0.015674 -0.053073
-0.393056 -0.028213 -0.053073
-0.393056 -0.040752 -0.053073
-0.393056 -0.053292 -0.053073
-0.393056 -0.059561 -0.053073
-0.393056 -0.072100 -0.053073
-0.393056 -0.084640 -0.053073
-0.393056 -0.097179 -0.053073
-0.393056 -0.103448 -0.053073
-0.393056 -0.115987 -0.053073
-0.393056 -0.128527 -0.053073
-0.393056 -0.141066 -0.053073
-0.393056 -0.147335 -0.053073
-0.393056 -0.159875 -0.053073
-0.393056 -0.172414 -0.053073
-0.393056 -0.184953 -0.053073
-0.393056 -0.191223 -0.053073
-0.393056 -0.203762 -0.053073
-0.349286 -0.216301 -0.047163
-0.349286 -0.228840 -0.047163
-0.349286 -0.235110 -0.047163
-0.349286 -0.247649 -0.047163
-0.349286 -0.260188 -0.047163
-0.349286 -0.272727 -0.047163
-0.349286 -0.278997 -0.047163
-0.349286 -0.291536 -0.047163
-0.349286 -0.304075 -0.047163
-0.305516 -0.316614 -0.041253
-0.305516 -0.322884 -0.041253
-0.305516 -0.335423 -0.041253
-0.305516 -0.347962 -0.041253
-0.349286 -0.360502 -0.047163
-0.349286 -0.366771 -0.047163
-0.349286 -0.379310 -0.047163
-0.349286 -0.391850 -0.047163
-0.349286 -0.404389 -0.047163
-0.349286 -0.410658 -0.047163
-0.349286 -0.423198 -0.047163
-0.305516 -0.435737 -0.041253
-0.305516 -0.448276 -0.041253
-0.305516 -0.454545 -0.041253
-0.305516 -0.467085 -0.041253
-0.305516 -0.479624 -0.041253
-0.349286 -0.492163 -0.047163
-0.349286 -0.498433 -0.047163
-0.349286 -0.510972 -0.047163
-0.349286 -0.523511 -0.047163
-0.349286 -0.536050 -0.047163
-0.349286 -0.542320 -0.047163
-0.349286 -0.554859 -0.047163
-0.305516 -0.567398 -0.041253
-0.305516 -0.579937 -0.041253
-0.305516 -0.586207 -0.041253
-0.305516 -0.598746 -0.041253
-0.305516 -0.611285 -0.041253
-0.305516 -0.623824 -0.041253
-0.305516 -0.630094 -0.041253
-0.261747 -0.642633 -0.035343
-0.261747 -0.655172 -0.035343
-0.261747 -0.667712 -0.035343
-0.305516 -0.673981 -0.041253
-0.261747 -0.686520 -0.035343
-0.261747 -0.699060 -0.035343
-0.261747 -0.711599 -0.035343
-0.261747 -0.717868 -0.035343
-0.261747 -0.730407 -0.035343
-0.261747 -0.742947 -0.035343
-0.261747 -0.755486 -0.035343
-0.261747 -0.761755 -0.035343
-0.261747 -0.774295 -0.035343
-0.261747 -0.786834 -0.035343
-0.261747 -0.799373 -0.035343
-0.261747 -0.805643 -0.035343
-0.261747 -0.818182 -0.035343
-0.261747 -0.830721 -0.035343
-0.261747 -0.843260 -0.035343
-0.261747 -0.849530 -0.035343
-0.261747 -0.862069 -0.035343
-0.261747 -0.874608 -0.035343
-0.261747 -0.887147 -0.035343
-0.261747 -0.893417 -0.035343
-0.261747 -0.905956 -0.035343
-0.261747 -0.918495 -0.035343
-0.261747 -0.931034 -0.035343
-0.261747 -0.937304 -0.035343
-0.261747 -0.949843 -0.035343
-0.261747 -0.962382 -0.035343
-0.261747 -0.974922 -0.035343
-0.261747 -0.981191 -0.035343
-0.261747 -0.993730 -0.035343
-0.261747 -1.006270 -0.035343
-0.217977 -1.018809 -0.029433
-0.217977 -1.025078 -0.029433
-0.217977 -1.037617 -0.029433
-0.217977 -1.050157 -0.029433
-0.217977 -1.062696 -0.029433
-0.261747 -1.068965 -0.035343
-0.261747 -1.081505 -0.035343
-0.305516 -1.094044 -0.041253
-0.349286 -1.106583 -0.047163
-0.393056 -1.112853 -0.053073
-0.436825 -1.125392 -0.058983
-0.480595 -1.137931 -0.064894
-0.524364 -1.150470 -0.070804
-0.524364 -1.156740 -0.070804
-0.217977 -1.169279 -0.029433
-0.174208 -1.181818 -0.023523
-0.217977 -1.194357 -0.029433
-0.217977 -1.200627 -0.029433
-0.261747 -1.213166 -0.035343
-0.786981 -1.225705 -0.106264
-0.830751 -1.238245 -0.112174
-0.874520 -1.244514 -0.118084
-0.918290 -1.257053 -0.123994
-0.962059 -1.269593 -0.129905
-1.005829 -1.282132 -0.135815
-1.049599 -1.288401 -0.141725
-1.093368 -1.300941 -0.147635
-1.137138 -1.313480 -0.153545
-1.224677 -1.326019 -0.165365
-1.268446 -1.332289 -0.171275
-1.312216 -1.344828 -0.177185
-1.355985 -1.357367 -0.183095
-1.399755 -1.369906 -0.189005
-1.443524 -1.376176 -0.194916
-1.487294 -1.388715 -0.200826
-1.531063 -1.401254 -0.206736
-1.574833 -1.413793 -0.212646
-1.574833 -1.420063 -0.212646
-1.618602 -1.432602 -0.218556
-1.706141 -1.445141 -0.230376
-1.749911 -1.457680 -0.236286
-1.793681 -1.463950 -0.242196
-1.837450 -1.476489 -0.248106
-1.837450 -1.489028 -0.248106
-1.924989 -1.501567 -0.259927
-1.924989 -1.507837 -0.259927
-2.012528 -1.520376 -0.271747
-2.012528 -1.532915 -0.271747
-2.056298 -1.545455 -0.277657
-0.175640 0.485893 -0.007239
-0.219769 0.473354 -0.009057
-0.219769 0.467085 -0.009057
-0.219769 0.454545 -0.009057
-0.219769 0.442006 -0.009057
-0.219769 0.429467 -0.009057
-0.440416 0.410658 -0.018151
-0.440416 0.398119 -0.018151
-0.484545 0.385580 -0.019970
-0.440416 0.379310 -0.018151
-0.440416 0.366771 -0.018151
-0.440416 0.354232 -0.018151
-0.440416 0.341693 -0.018151
-0.440416 0.335423 -0.018151
-0.440416 0.322884 -0.018151
-0.396286 0.310345 -0.016332
-0.396286 0.297806 -0.016332
-0.396286 0.291536 -0.016332
-0.396286 0.278997 -0.016332
-0.396286 0.266458 -0.016332
-0.396286 0.253918 -0.016332
-0.396286 0.247649 -0.016332
-0.396286 0.235110 -0.016332
-0.396286 0.222571 -0.016332
-0.396286 0.210031 -0.016332
-0.396286 0.203762 -0.016332
-0.396286 0.191223 -0.016332
-0.396286 0.178683 -0.016332
-0.396286 0.166144 -0.016332
-0.396286 0.159875 -0.016332
-0.396286 0.147335 -0.016332
-0.396286 0.134796 -0.016332
-0.396286 0.122257 -0.016332
-0.396286 0.115987 -0.016332
-0.396286 0.103448 -0.016332
-0.396286 0.090909 -0.016332
-0.396286 0.078370 -0.016332
-0.396286 0.072100 -0.016332
-0.396286 0.059561 -0.016332
-0.396286 0.047022 -0.016332
-0.396286 0.034483 -0.016332
-0.396286 0.028213 -0.016332
-0.396286 0.015674 -0.016332
-0.396286 0.003135 -0.016332
-0.396286 -0.009404 -0.016332
-0.440416 -0.015674 -0.018151
-0.440416 -0.028213 -0.018151
-0.396286 -0.040752 -0.016332
-0.396286 -0.053292 -0.016332
-0.396286 -0.059561 -0.016332
-0.396286 -0.072100 -0.016332
-0.396286 -0.084640 -0.016332
-0.396286 -0.097179 -0.016332
-0.396286 -0.103448 -0.016332
-0.396286 -0.115987 -0.016332
-0.396286 -0.128527 -0.016332
-0.396286 -0.141066 -0.016332
-0.352157 -0.147335 -0.014513
-0.308028 -0.159875 -0.012695
-0.308028 -0.172414 -0.012695
-0.308028 -0.184953 -0.012695
-0.308028 -0.191223 -0.012695
-0.308028 -0.203762 -0.012695
-0.352157 -0.216301 -0.014513
-0.352157 -0.228840 -0.014513
-0.352157 -0.235110 -0.014513
-0.352157 -0.247649 -0.014513
-0.352157 -0.260188 -0.014513
-0.352157 -0.272727 -0.014513
-0.352157 -0.278997 -0.014513
-0.352157 -0.291536 -0.014513
-0.352157 -0.304075 -0.014513
-0.352157 -0.316614 -0.014513
-0.352157 -0.322884 -0.014513
-0.352157 -0.335423 -0.014513
-0.352157 -0.347962 -0.014513
-0.352157 -0.360502 -0.014513
-0.352157 -0.366771 -0.014513
-0.308028 -0.379310 -0.012695
-0.308028 -0.391850 -0.012695
-0.308028 -0.404389 -0.012695
-0.308028 -0.410658 -0.012695
-0.308028 -0.423198 -0.012695
-0.352157 -0.435737 -0.014513
-0.352157 -0.448276 -0.014513
-0.308028 -0.454545 -0.012695
-0.308028 -0.467085 -0.012695
-0.308028 -0.479624 -0.012695
-0.308028 -0.492163 -0.012695
-0.308028 -0.498433 -0.012695
-0.308028 -0.510972 -0.012695
-0.308028 -0.523511 -0.012695
-0.308028 -0.536050 -0.012695
-0.308028 -0.542320 -0.012695
-0.308028 -0.554859 -0.012695
-0.308028 -0.567398 -0.012695
-0.308028 -0.579937 -0.012695
-0.308028 -0.586207 -0.012695
-0.308028 -0.598746 -0.012695
-0.308028 -0.611285 -0.012695
-0.308028 -0.623824 -0.012695
-0.308028 -0.630094 -0.012695
-0.308028 -0.642633 -0.012695
-0.308028 -0.655172 -0.012695
-0.308028 -0.667712 -0.012695
-0.308028 -0.673981 -0.012695
-0.263898 -0.686520 -0.010876
-0.263898 -0.699060 -0.010876
-0.263898 -0.711599 -0.010876
-0.263898 -0.717868 -0.010876
-0.263898 -0.730407 -0.010876
-0.263898 -0.742947 -0.010876
-0.263898 -0.755486 -0.010876
-0.263898 -0.761755 -0.010876
-0.263898 -0.774295 -0.010876
-0.263898 -0.786834 -0.010876
-0.263898 -0.799373 -0.010876
-0.263898 -0.805643 -0.010876
-0.263898 -0.818182 -0.010876
-0.263898 -0.830721 -0.010876
-0.263898 -0.843260 -0.010876
-0.263898 -0.849530 -0.010876
-0.263898 -0.862069 -0.010876
-0.263898 -0.874608 -0.010876
-0.263898 -0.887147 -0.010876
-0.263898 -0.893417 -0.010876
-0.263898 -0.905956 -0.010876
-0.263898 -0.918495 -0.010876
-0.263898 -0.931034 -0.010876
-0.263898 -0.937304 -0.010876
-0.263898 -0.949843 -0.010876
-0.219769 -0.962382 -0.009057
