-0.035795 0.260188 0.371062
-0.035795 0.247649 0.371062
-0.035795 0.241379 0.371062
-0.036931 0.228840 0.382842
-0.036931 0.222571 0.382842
-0.036931 0.210031 0.382842
-0.038067 0.203762 0.394621
-0.038067 0.191223 0.394621
-0.038067 0.184953 0.394621
-0.038067 0.178683 0.394621
-0.039204 0.166144 0.406401
-0.039204 0.159875 0.406401
-0.039204 0.147335 0.406401
-0.040340 0.141066 0.418181
-0.040340 0.128527 0.418181
-0.040340 0.122257 0.418181
-0.041476 0.109718 0.429961
-0.041476 0.103448 0.429961
-0.041476 0.090909 0.429961
-0.041476 0.084639 0.429961
-0.042613 0.078370 0.441740
-0.042613 0.065831 0.441740
-0.042613 0.059561 0.441740
-0.042613 0.047022 0.441740
-0.042613 0.040752 0.441740
-0.043749 0.028213 0.453520
-0.043749 0.021944 0.453520
-0.043749 0.009404 0.453520
-0.043749 0.003135 0.453520
-0.043749 -0.003135 0.453520
-0.044885 -0.015674 0.465300
-0.044885 -0.021944 0.465300
-0.044885 -0.034483 0.465300
-0.044885 -0.040752 0.465300
-0.044885 -0.053292 0.465300
-0.044885 -0.059561 0.465300
-0.044885 -0.072100 0.465300
-0.046022 -0.078370 0.477080
-0.046022 -0.090909 0.477080
-0.046022 -0.097179 0.477080
-0.046022 -0.103448 0.477080
-0.046022 -0.115987 0.477080
-0.047158 -0.122257 0.488859
-0.047158 -0.134796 0.488859
-0.047158 -0.141066 0.488859
-0.047158 -0.153605 0.488859
-0.047158 -0.159875 0.488859
-0.047158 -0.172414 0.488859
-0.047158 -0.178683 0.488859
-0.048294 -0.184953 0.500639
-0.048294 -0.197492 0.500639
-0.048294 -0.203762 0.500639
-0.048294 -0.216301 0.500639
-0.048294 -0.222571 0.500639
-0.048294 -0.235110 0.500639
-0.048294 -0.241379 0.500639
-0.049431 -0.253919 0.512419
-0.049431 -0.260188 0.512419
-0.048294 -0.272727 0.500639
-0.048294 -0.278997 0.500639
-0.049431 -0.285266 0.512419
-0.049431 -0.297806 0.512419
-0.049431 -0.304075 0.512419
-0.049431 -0.316614 0.512419
-0.049431 -0.322884 0.512419
-0.049431 -0.335423 0.512419
-0.049431 -0.341693 0.512419
-0.049431 -0.354232 0.512419
-0.049431 -0.360502 0.512419
-0.049431 -0.366771 0.512419
-0.049431 -0.379310 0.512419
-0.050567 -0.385580 0.524198
-0.050567 -0.398119 0.524198
-0.050567 -0.404389 0.524198
-0.050567 -0.416928 0.524198
-0.050567 -0.423198 0.524198
-0.050567 -0.435737 0.524198
-0.050567 -0.442006 0.524198
-0.050567 -0.454545 0.524198
-0.050567 -0.460815 0.524198
-0.050567 -0.467085 0.524198
-0.050567 -0.479624 0.524198
-0.050567 -0.485893 0.524198
-0.050567 -0.498433 0.524198
-0.050567 -0.504702 0.524198
-0.050567 -0.517241 0.524198
-0.050567 -0.523511 0.524198
-0.050567 -0.536050 0.524198
-0.050567 -0.542320 0.524198
-0.050567 -0.548589 0.524198
-0.050567 -0.561128 0.524198
-0.050567 -0.567398 0.524198
-0.050567 -0.579937 0.524198
-0.050567 -0.586207 0.524198
-0.050567 -0.598746 0.524198
-0.050567 -0.605016 0.524198
-0.050567 -0.617555 0.524198
-0.050567 -0.623824 0.524198
-0.050567 -0.636364 0.524198
-0.050567 -0.642633 0.524198
-0.050567 -0.648903 0.524198
-0.050567 -0.661442 0.524198
-0.049431 -0.667712 0.512419
-0.049431 -0.680251 0.512419
-0.048294 -0.686520 0.500639
-0.048294 -0.699060 0.500639
-0.046022 -0.705329 0.477080
-0.044885 -0.717868 0.465300
-0.043749 -0.724138 0.453520
-0.043749 -0.730407 0.453520
-0.077839 -0.862069 0.806912
-0.078975 -0.868339 0.818692
-0.047158 -0.887147 0.488859
-0.048294 -0.899687 0.500639
-0.048294 -0.905956 0.500639
-0.048294 -0.912226 0.500639
-0.048294 -0.924765 0.500639
-0.047158 -0.931034 0.488859
-0.047158 -0.943574 0.488859
-0.048294 -0.949843 0.500639
-0.048294 -0.962382 0.500639
-0.047158 -0.968652 0.488859
-0.048294 -0.981191 0.500639
-0.047158 -0.987461 0.488859
-0.047158 -1.000000 0.488859
-0.048294 -1.006270 0.500639
-0.048294 -1.012539 0.500639
-0.047158 -1.025078 0.488859
-0.047158 -1.031348 0.488859
-0.047158 -1.043887 0.488859
-0.048294 -1.050157 0.500639
0.000087 0.724138 0.041420
0.000112 0.711599 0.053255
0.000087 0.705329 0.041420
0.000087 0.692790 0.041420
0.000112 0.686520 0.053255
0.000112 0.673981 0.053255
0.000112 0.667712 0.053255
0.000112 0.655172 0.053255
0.000136 0.648903 0.065089
0.000136 0.636364 0.065089
0.000136 0.630094 0.065089
0.000136 0.623824 0.065089
0.000136 0.611285 0.065089
0.000136 0.605016 0.065089
0.000136 0.592476 0.065089
0.000136 0.586207 0.065089
0.000136 0.573668 0.065089
0.000112 0.567398 0.053255
0.000112 0.554859 0.053255
0.000112 0.548589 0.053255
0.000112 0.542320 0.053255
0.000112 0.529781 0.053255
0.000112 0.523511 0.053255
0.000112 0.510972 0.053255
0.000112 0.504702 0.053255
0.000112 0.492163 0.053255
0.000112 0.485893 0.053255
0.000112 0.473354 0.053255
0.000359 0.467085 0.171599
0.000409 0.454545 0.195268
0.000434 0.448276 0.207102
0.000483 0.442006 0.230771
0.000508 0.429467 0.242605
0.000533 0.423198 0.254439
0.000558 0.410658 0.266274
0.000582 0.404389 0.278108
0.000607 0.391850 0.289943
0.000607 0.385580 0.289943
0.000632 0.373041 0.301777
0.000657 0.366771 0.313611
0.000682 0.360502 0.325446
0.000706 0.347962 0.337280
0.000706 0.341693 0.337280
0.000731 0.329154 0.349115
0.000731 0.322884 0.349115
0.000731 0.310345 0.349115
0.000756 0.304075 0.360949
0.000756 0.291536 0.360949
0.000781 0.285266 0.372783
0.000781 0.272727 0.372783
0.000781 0.266458 0.372783
0.000781 0.260188 0.372783
0.000781 0.247649 0.372783
0.000805 0.241379 0.384618
0.000805 0.228840 0.384618
0.000830 0.222571 0.396452
0.000830 0.210031 0.396452
0.000830 0.203762 0.396452
0.000830 0.191223 0.396452
0.000855 0.184953 0.408287
0.000855 0.178683 0.408287
0.000855 0.166144 0.408287
0.000880 0.159875 0.420121
0.000880 0.147335 0.420121
0.000880 0.141066 0.420121
0.000905 0.128527 0.431956
0.000905 0.122257 0.431956
0.000905 0.109718 0.431956
0.000905 0.103448 0.431956
0.000905 0.090909 0.431956
0.000905 0.084639 0.431956
0.000929 0.078370 0.443790
0.000929 0.065831 0.443790
0.000929 0.059561 0.443790
0.000929 0.047022 0.443790
0.000929 0.040752 0.443790
0.000929 0.028213 0.443790
0.000929 0.021944 0.443790
0.000929 0.009404 0.443790
0.000929 0.003135 0.443790
0.000929 -0.003135 0.443790
0.000954 -0.015674 0.455624
0.000954 -0.021944 0.455624
0.000954 -0.034483 0.455624
0.000954 -0.040752 0.455624
0.000979 -0.053292 0.467459
0.000979 -0.059561 0.467459
0.000979 -0.072100 0.467459
0.000979 -0.078370 0.467459
0.000979 -0.090909 0.467459
0.000979 -0.097179 0.467459
0.000979 -0.103448 0.467459
0.001004 -0.115987 0.479293
0.001004 -0.122257 0.479293
0.001004 -0.134796 0.479293
0.001004 -0.141066 0.479293
0.001004 -0.153605 0.479293
0.001029 -0.159875 0.491128
0.001053 -0.172414 0.502962
0.001053 -0.178683 0.502962
0.001053 -0.184953 0.502962
0.001053 -0.197492 0.502962
0.001053 -0.203762 0.502962
0.001053 -0.216301 0.502962
0.001053 -0.222571 0.502962
0.001053 -0.235110 0.502962
0.001053 -0.241379 0.502962
0.001053 -0.253919 0.502962
0.001078 -0.260188 0.514796
0.001078 -0.272727 0.514796
0.001053 -0.278997 0.502962
0.001053 -0.285266 0.502962
0.001053 -0.297806 0.502962
0.001078 -0.304075 0.514796
0.001078 -0.316614 0.514796
0.001078 -0.322884 0.514796
0.001078 -0.335423 0.514796
0.001078 -0.341693 0.514796
0.001078 -0.354232 0.514796
0.001078 -0.360502 0.514796
0.001078 -0.366771 0.514796
0.001078 -0.379310 0.514796
0.001103 -0.385580 0.526631
0.001103 -0.398119 0.526631
0.001103 -0.404389 0.526631
0.001103 -0.416928 0.526631
0.001103 -0.423198 0.526631
0.001103 -0.435737 0.526631
0.001103 -0.442006 0.526631
0.001103 -0.454545 0.526631
0.001103 -0.460815 0.526631
0.001103 -0.467085 0.526631
0.001103 -0.479624 0.526631
0.001103 -0.485893 0.526631
0.001103 -0.498433 0.526631
0.001103 -0.504702 0.526631
0.001128 -0.517241 0.538465
0.001128 -0.523511 0.538465
0.001128 -0.536050 0.538465
0.001103 -0.542320 0.526631
0.001103 -0.548589 0.526631
0.001103 -0.561128 0.526631
0.001103 -0.567398 0.526631
0.001103 -0.579937 0.526631
0.001103 -0.586207 0.526631
0.001103 -0.598746 0.526631
0.001103 -0.605016 0.526631
0.001103 -0.617555 0.526631
0.001103 -0.623824 0.526631
0.001103 -0.636364 0.526631
0.001103 -0.642633 0.526631
0.001103 -0.648903 0.526631
0.001078 -0.661442 0.514796
0.001078 -0.667712 0.514796
0.001078 -0.680251 0.514796
0.001053 -0.686520 0.502962
0.001029 -0.699060 0.491128
0.001029 -0.705329 0.491128
0.001029 -0.717868 0.491128
0.000706 -0.742947 0.337280
0.000682 -0.749216 0.325446
0.000731 -0.761755 0.349115
0.000855 -0.768025 0.408287
0.001549 -0.849530 0.739650
0.001053 -0.899687 0.502962
0.001053 -0.905956 0.502962
0.001053 -0.912226 0.502962
0.001053 -0.924765 0.502962
0.001053 -0.931034 0.502962
0.001053 -0.943574 0.502962
0.001053 -0.949843 0.502962
0.001053 -0.962382 0.502962
0.001053 -0.968652 0.502962
0.001053 -0.981191 0.502962
0.001053 -0.987461 0.502962
0.001053 -1.000000 0.502962
0.001053 -1.006270 0.502962
0.001053 -1.012539 0.502962
0.001053 -1.025078 0.502962
0.001053 -1.031348 0.502962
0.001053 -1.043887 0.502962
0.001029 -1.050157 0.491128
0.001029 -1.062696 0.491128
0.001053 -1.068965 0.502962
0.001029 -1.081505 0.491128
0.001029 -1.087774 0.491128
0.001778 0.755486 0.017662
0.001778 0.749216 0.017662
0.002964 0.736677 0.029437
0.002964 0.730408 0.029437
0.004150 0.724138 0.041212
0.004150 0.711599 0.041212
0.005336 0.705329 0.052987
0.005336 0.692790 0.052987
0.005336 0.686520 0.052987
0.006521 0.673981 0.064762
0.006521 0.667712 0.064762
0.006521 0.655172 0.064762
0.006521 0.648903 0.064762
0.006521 0.636364 0.064762
0.006521 0.630094 0.064762
0.005336 0.623824 0.052987
0.005336 0.611285 0.052987
0.005336 0.605016 0.052987
0.006521 0.592476 0.064762
0.006521 0.586207 0.064762
0.006521 0.573668 0.064762
0.006521 0.567398 0.064762
0.006521 0.554859 0.064762
0.006521 0.548589 0.064762
0.005336 0.542320 0.052987
0.005336 0.529781 0.052987
0.005336 0.523511 0.052987
0.005336 0.510972 0.052987
0.005336 0.504702 0.052987
0.005336 0.492163 0.052987
0.005336 0.485893 0.052987
0.005336 0.473354 0.052987
0.017192 0.467085 0.170736
0.019564 0.454545 0.194286
0.021935 0.448276 0.217835
0.023121 0.442006 0.229610
0.024306 0.429467 0.241385
0.026678 0.423198 0.264935
0.027863 0.410658 0.276710
0.029049 0.404389 0.288485
0.030235 0.391850 0.300259
0.031420 0.385580 0.312034
0.032606 0.373041 0.323809
0.032606 0.366771 0.323809
0.033792 0.360502 0.335584
0.033792 0.347962 0.335584
0.034977 0.341693 0.347359
0.034977 0.329154 0.347359
0.034977 0.322884 0.347359
0.036163 0.310345 0.359134
0.036163 0.304075 0.359134
0.036163 0.291536 0.359134
0.036163 0.285266 0.359134
0.037349 0.272727 0.370909
0.037349 0.266458 0.370909
0.037349 0.260188 0.370909
0.038534 0.247649 0.382684
0.038534 0.241379 0.382684
0.038534 0.228840 0.382684
0.038534 0.222571 0.382684
0.039720 0.210031 0.394458
0.040906 0.203762 0.406233
0.040906 0.191223 0.406233
0.040906 0.184953 0.406233
0.042091 0.178683 0.418008
0.042091 0.166144 0.418008
0.042091 0.159875 0.418008
0.042091 0.147335 0.418008
0.043277 0.141066 0.429783
0.043277 0.128527 0.429783
0.043277 0.122257 0.429783
0.043277 0.109718 0.429783
0.043277 0.103448 0.429783
0.043277 0.090909 0.429783
0.043277 0.084639 0.429783
0.043277 0.078370 0.429783
0.043277 0.065831 0.429783
0.044463 0.059561 0.441558
0.044463 0.047022 0.441558
0.044463 0.040752 0.441558
0.044463 0.028213 0.441558
0.044463 0.021944 0.441558
0.045648 0.009404 0.453333
0.044463 0.003135 0.441558
0.044463 -0.003135 0.441558
0.044463 -0.015674 0.441558
0.044463 -0.021944 0.441558
0.044463 -0.034483 0.441558
0.045648 -0.040752 0.453333
0.045648 -0.053292 0.453333
0.046834 -0.059561 0.465108
0.048020 -0.072100 0.476883
0.048020 -0.078370 0.476883
0.049205 -0.090909 0.488658
0.049205 -0.097179 0.488658
0.049205 -0.103448 0.488658
0.049205 -0.115987 0.488658
0.049205 -0.122257 0.488658
0.049205 -0.134796 0.488658
0.049205 -0.141066 0.488658
0.049205 -0.153605 0.488658
0.050391 -0.159875 0.500432
0.050391 -0.172414 0.500432
0.050391 -0.178683 0.500432
0.050391 -0.184953 0.500432
0.050391 -0.197492 0.500432
0.050391 -0.203762 0.500432
0.050391 -0.216301 0.500432
0.051577 -0.222571 0.512207
0.051577 -0.235110 0.512207
0.050391 -0.241379 0.500432
0.050391 -0.253919 0.500432
0.051577 -0.260188 0.512207
0.051577 -0.272727 0.512207
0.051577 -0.278997 0.512207
0.051577 -0.285266 0.512207
0.051577 -0.297806 0.512207
0.051577 -0.304075 0.512207
0.051577 -0.316614 0.512207
0.051577 -0.322884 0.512207
0.051577 -0.335423 0.512207
0.051577 -0.341693 0.512207
0.051577 -0.354232 0.512207
0.051577 -0.360502 0.512207
0.051577 -0.366771 0.512207
0.051577 -0.379310 0.512207
0.051577 -0.385580 0.512207
0.052762 -0.398119 0.523982
0.052762 -0.404389 0.523982
0.052762 -0.416928 0.523982
0.052762 -0.423198 0.523982
0.052762 -0.435737 0.523982
0.052762 -0.442006 0.523982
0.052762 -0.454545 0.523982
0.052762 -0.460815 0.523982
0.052762 -0.467085 0.523982
0.052762 -0.479624 0.523982
0.052762 -0.485893 0.523982
0.052762 -0.498433 0.523982
0.052762 -0.504702 0.523982
0.052762 -0.517241 0.523982
0.052762 -0.523511 0.523982
0.052762 -0.536050 0.523982
0.052762 -0.542320 0.523982
0.052762 -0.548589 0.523982
0.052762 -0.561128 0.523982
0.052762 -0.567398 0.523982
0.052762 -0.579937 0.523982
0.052762 -0.586207 0.523982
0.052762 -0.598746 0.523982
0.052762 -0.605016 0.523982
0.052762 -0.617555 0.523982
0.052762 -0.623824 0.523982
0.052762 -0.636364 0.523982
0.052762 -0.642633 0.523982
0.052762 -0.648903 0.523982
0.051577 -0.661442 0.512207
0.051577 -0.667712 0.512207
0.050391 -0.680251 0.500432
0.050391 -0.686520 0.500432
0.048020 -0.699060 0.476883
0.046834 -0.705329 0.465108
0.046834 -0.717868 0.465108
0.046834 -0.724138 0.465108
0.045648 -0.730407 0.453333
0.039720 -0.761755 0.394458
0.042091 -0.768025 0.418008
0.044463 -0.780564 0.441558
0.046834 -0.786834 0.465108
0.050391 -0.799373 0.500432
0.052762 -0.805643 0.523982
0.066990 -0.830721 0.665281
0.068176 -0.843260 0.677055
0.069362 -0.849530 0.688830
0.078847 -0.862069 0.783029
0.100189 -0.912226 0.994977
0.101375 -0.924765 1.006752
0.107303 -0.931034 1.065627
0.110860 -0.943574 1.100951
0.112046 -0.949843 1.112726
0.049205 -0.962382 0.488658
0.050391 -0.968652 0.500432
0.050391 -0.981191 0.500432
0.050391 -0.987461 0.500432
0.050391 -1.000000 0.500432
0.001168 0.774295 0.005801
0.001168 0.768025 0.005801
0.003503 0.755486 0.017403
0.003503 0.749216 0.017403
0.005838 0.736677 0.029004
0.008173 0.730408 0.040606
0.008173 0.724138 0.040606
0.010508 0.711599 0.052208
0.010508 0.705329 0.052208
0.010508 0.692790 0.052208
0.012843 0.686520 0.063810
0.012843 0.673981 0.063810
0.012843 0.667712 0.063810
0.012843 0.655172 0.063810
0.012843 0.648903 0.063810
0.012843 0.636364 0.063810
0.012843 0.630094 0.063810
0.012843 0.623824 0.063810
0.012843 0.611285 0.063810
0.010508 0.605016 0.052208
0.010508 0.592476 0.052208
0.010508 0.586207 0.052208
0.010508 0.573668 0.052208
0.010508 0.567398 0.052208
0.012843 0.554859 0.063810
0.010508 0.548589 0.052208
0.008173 0.542320 0.040606
0.008173 0.529781 0.040606
0.008173 0.523511 0.040606
0.010508 0.510972 0.052208
0.010508 0.504702 0.052208
0.010508 0.492163 0.052208
0.010508 0.485893 0.052208
0.015178 0.473354 0.075411
0.026854 0.467085 0.133420
0.038529 0.454545 0.191429
0.043200 0.448276 0.214633
0.045535 0.442006 0.226234
0.050205 0.429467 0.249438
0.054875 0.423198 0.272641
0.057210 0.410658 0.284243
0.059545 0.404389 0.295845
0.061880 0.391850 0.307447
0.064216 0.385580 0.319048
0.064216 0.373041 0.319048
0.066551 0.366771 0.330650
0.066551 0.360502 0.330650
0.068886 0.347962 0.342252
0.068886 0.341693 0.342252
0.071221 0.329154 0.353854
0.071221 0.322884 0.353854
0.071221 0.310345 0.353854
0.073556 0.304075 0.365455
0.073556 0.291536 0.365455
0.073556 0.285266 0.365455
0.075891 0.272727 0.377057
0.075891 0.266458 0.377057
0.078226 0.260188 0.388659
0.078226 0.247649 0.388659
0.080561 0.241379 0.400261
0.080561 0.228840 0.400261
0.080561 0.222571 0.400261
0.080561 0.210031 0.400261
0.082897 0.203762 0.411862
0.082897 0.191223 0.411862
0.082897 0.184953 0.411862
0.082897 0.178683 0.411862
0.082897 0.166144 0.411862
0.082897 0.159875 0.411862
0.087567 0.147335 0.435066
0.085232 0.141066 0.423464
0.085232 0.128527 0.423464
0.082897 0.122257 0.411862
0.082897 0.109718 0.411862
0.082897 0.103448 0.411862
0.082897 0.090909 0.411862
0.080561 0.084639 0.400261
0.082897 0.078370 0.411862
0.082897 0.065831 0.411862
0.082897 0.059561 0.411862
0.085232 0.047022 0.423464
0.085232 0.040752 0.423464
0.087567 0.028213 0.435066
0.087567 0.021944 0.435066
0.089902 0.009404 0.446668
0.094572 0.003135 0.469871
0.096907 -0.003135 0.481473
0.096907 -0.015674 0.481473
0.099242 -0.021944 0.493075
0.099242 -0.034483 0.493075
0.099242 -0.040752 0.493075
0.099242 -0.053292 0.493075
0.099242 -0.059561 0.493075
0.099242 -0.072100 0.493075
0.099242 -0.078370 0.493075
0.099242 -0.090909 0.493075
0.099242 -0.097179 0.493075
0.099242 -0.103448 0.493075
0.099242 -0.115987 0.493075
0.099242 -0.122257 0.493075
0.099242 -0.134796 0.493075
0.099242 -0.141066 0.493075
0.099242 -0.153605 0.493075
0.099242 -0.159875 0.493075
0.099242 -0.172414 0.493075
0.099242 -0.178683 0.493075
0.099242 -0.184953 0.493075
0.099242 -0.197492 0.493075
0.101577 -0.203762 0.504677
0.101577 -0.216301 0.504677
0.101577 -0.222571 0.504677
0.101577 -0.235110 0.504677
0.101577 -0.241379 0.504677
0.101577 -0.253919 0.504677
0.101577 -0.260188 0.504677
0.101577 -0.272727 0.504677
0.101577 -0.278997 0.504677
0.101577 -0.285266 0.504677
0.101577 -0.297806 0.504677
0.101577 -0.304075 0.504677
0.103913 -0.316614 0.516278
0.103913 -0.322884 0.516278
0.103913 -0.335423 0.516278
0.103913 -0.341693 0.516278
0.101577 -0.354232 0.504677
0.101577 -0.360502 0.504677
0.101577 -0.366771 0.504677
0.101577 -0.379310 0.504677
0.103913 -0.385580 0.516278
0.103913 -0.398119 0.516278
0.103913 -0.404389 0.516278
0.103913 -0.416928 0.516278
0.103913 -0.423198 0.516278
0.103913 -0.435737 0.516278
0.103913 -0.442006 0.516278
0.103913 -0.454545 0.516278
0.103913 -0.460815 0.516278
0.103913 -0.467085 0.516278
0.103913 -0.479624 0.516278
0.103913 -0.485893 0.516278
0.103913 -0.498433 0.516278
0.103913 -0.504702 0.516278
0.103913 -0.517241 0.516278
0.103913 -0.523511 0.516278
0.103913 -0.536050 0.516278
0.103913 -0.542320 0.516278
0.103913 -0.548589 0.516278
0.103913 -0.561128 0.516278
0.103913 -0.567398 0.516278
0.103913 -0.579937 0.516278
0.103913 -0.586207 0.516278
0.103913 -0.598746 0.516278
0.103913 -0.605016 0.516278
0.103913 -0.617555 0.516278
0.103913 -0.623824 0.516278
0.103913 -0.636364 0.516278
0.101577 -0.642633 0.504677
0.101577 -0.648903 0.504677
0.101577 -0.661442 0.504677
0.099242 -0.667712 0.493075
0.099242 -0.680251 0.493075
0.099242 -0.686520 0.493075
0.094572 -0.699060 0.469871
0.094572 -0.705329 0.469871
0.092237 -0.717868 0.458269
0.092237 -0.724138 0.458269
0.068886 -0.749216 0.342252
0.068886 -0.761755 0.342252
0.078226 -0.768025 0.388659
0.078226 -0.780564 0.388659
0.101577 -0.799373 0.504677
0.108583 -0.805643 0.539482
0.120258 -0.818182 0.597491
0.122593 -0.824451 0.609092
0.127264 -0.830721 0.632296
0.129599 -0.843260 0.643898
0.152950 -0.862069 0.759915
0.159955 -0.868339 0.794721
0.159955 -0.880878 0.794721
0.162290 -0.887147 0.806322
0.197317 -0.912226 0.980349
0.199652 -0.924765 0.991950
0.213663 -0.931034 1.061561
0.215998 -0.943574 1.073163
0.218333 -0.949843 1.084765
0.096907 -0.987461 0.481473
0.096907 -1.000000 0.481473
0.096907 -1.006270 0.481473
0.096907 -1.012539 0.481473
0.096907 -1.025078 0.481473
0.096907 -1.031348 0.481473
0.096907 -1.043887 0.481473
0.096907 -1.050157 0.481473
0.096907 -1.062696 0.481473
0.096907 -1.068965 0.481473
0.096907 -1.081505 0.481473
0.096907 -1.087774 0.481473
0.096907 -1.094044 0.481473
0.096907 -1.106583 0.481473
0.094572 -1.112853 0.469871
0.096907 -1.125392 0.481473
0.001740 0.768025 0.005656
0.001740 0.755486 0.005656
0.008700 0.749216 0.028278
0.012179 0.736677 0.039589
0.012179 0.730408 0.039589
0.012179 0.724138 0.039589
0.015659 0.711599 0.050901
0.015659 0.705329 0.050901
0.015659 0.692790 0.050901
0.019139 0.686520 0.062212
0.019139 0.673981 0.062212
0.019139 0.667712 0.062212
0.019139 0.655172 0.062212
0.019139 0.648903 0.062212
0.019139 0.636364 0.062212
0.019139 0.630094 0.062212
0.019139 0.623824 0.062212
0.015659 0.611285 0.050901
0.015659 0.605016 0.050901
0.019139 0.592476 0.062212
0.019139 0.586207 0.062212
0.019139 0.573668 0.062212
0.019139 0.567398 0.062212
0.015659 0.554859 0.050901
0.015659 0.548589 0.050901
0.015659 0.542320 0.050901
0.015659 0.529781 0.050901
0.015659 0.523511 0.050901
0.015659 0.510972 0.050901
0.015659 0.504702 0.050901
0.015659 0.492163 0.050901
0.015659 0.485893 0.050901
0.015659 0.473354 0.050901
0.046977 0.467085 0.152702
0.057417 0.454545 0.186636
0.067856 0.448276 0.220569
0.071336 0.442006 0.231881
0.078295 0.429467 0.254503
0.081775 0.423198 0.265815
0.088735 0.410658 0.288437
0.092215 0.404389 0.299748
0.095694 0.391850 0.311060
0.099174 0.385580 0.322371
0.099174 0.373041 0.322371
0.102654 0.366771 0.333682
0.102654 0.360502 0.333682
0.106134 0.347962 0.344993
0.106134 0.341693 0.344993
0.109614 0.329154 0.356305
0.109614 0.322884 0.356305
0.109614 0.310345 0.356305
0.113093 0.304075 0.367616
0.113093 0.291536 0.367616
0.116573 0.285266 0.378927
0.116573 0.272727 0.378927
0.120053 0.266458 0.390238
0.120053 0.260188 0.390238
0.120053 0.247649 0.390238
0.123533 0.241379 0.401550
0.123533 0.228840 0.401550
0.123533 0.222571 0.401550
0.123533 0.210031 0.401550
0.123533 0.203762 0.401550
0.123533 0.191223 0.401550
0.123533 0.184953 0.401550
0.123533 0.178683 0.401550
0.123533 0.166144 0.401550
0.123533 0.159875 0.401550
0.130492 0.147335 0.424172
0.130492 0.141066 0.424172
0.133972 0.128527 0.435483
0.133972 0.122257 0.435483
0.137452 0.109718 0.446795
0.137452 0.103448 0.446795
0.137452 0.090909 0.446795
0.140932 0.084639 0.458106
0.140932 0.078370 0.458106
0.140932 0.065831 0.458106
0.144412 0.059561 0.469417
0.147891 0.047022 0.480728
0.147891 0.040752 0.480728
0.147891 0.028213 0.480728
0.147891 0.021944 0.480728
0.151371 0.009404 0.492040
0.151371 0.003135 0.492040
0.151371 -0.003135 0.492040
0.151371 -0.015674 0.492040
0.151371 -0.021944 0.492040
0.154851 -0.034483 0.503351
0.154851 -0.040752 0.503351
0.154851 -0.053292 0.503351
0.151371 -0.059561 0.492040
0.151371 -0.072100 0.492040
0.151371 -0.078370 0.492040
0.147891 -0.090909 0.480728
0.144412 -0.097179 0.469417
0.144412 -0.103448 0.469417
0.144412 -0.115987 0.469417
0.144412 -0.122257 0.469417
0.147891 -0.134796 0.480728
0.151371 -0.141066 0.492040
0.151371 -0.153605 0.492040
0.151371 -0.159875 0.492040
0.151371 -0.172414 0.492040
0.151371 -0.178683 0.492040
0.151371 -0.184953 0.492040
0.151371 -0.197492 0.492040
0.151371 -0.203762 0.492040
0.151371 -0.216301 0.492040
0.151371 -0.222571 0.492040
0.151371 -0.235110 0.492040
0.154851 -0.241379 0.503351
0.154851 -0.253919 0.503351
0.154851 -0.260188 0.503351
0.154851 -0.272727 0.503351
0.154851 -0.278997 0.503351
0.154851 -0.285266 0.503351
0.154851 -0.297806 0.503351
0.154851 -0.304075 0.503351
0.154851 -0.316614 0.503351
0.154851 -0.322884 0.503351
0.154851 -0.335423 0.503351
0.154851 -0.341693 0.503351
0.154851 -0.354232 0.503351
0.154851 -0.360502 0.503351
0.154851 -0.366771 0.503351
0.154851 -0.379310 0.503351
0.154851 -0.385580 0.503351
0.154851 -0.398119 0.503351
0.154851 -0.404389 0.503351
0.154851 -0.416928 0.503351
0.154851 -0.423198 0.503351
0.154851 -0.435737 0.503351
0.154851 -0.442006 0.503351
0.154851 -0.454545 0.503351
0.154851 -0.460815 0.503351
0.154851 -0.467085 0.503351
0.154851 -0.479624 0.503351
0.154851 -0.485893 0.503351
0.154851 -0.498433 0.503351
0.154851 -0.504702 0.503351
0.154851 -0.517241 0.503351
0.154851 -0.523511 0.503351
0.154851 -0.536050 0.503351
0.154851 -0.542320 0.503351
0.154851 -0.548589 0.503351
0.154851 -0.561128 0.503351
0.154851 -0.567398 0.503351
0.154851 -0.579937 0.503351
0.154851 -0.586207 0.503351
0.154851 -0.598746 0.503351
0.154851 -0.605016 0.503351
0.154851 -0.617555 0.503351
0.154851 -0.623824 0.503351
0.154851 -0.636364 0.503351
0.154851 -0.642633 0.503351
0.154851 -0.648903 0.503351
0.151371 -0.661442 0.492040
0.151371 -0.667712 0.492040
0.147891 -0.680251 0.480728
0.147891 -0.686520 0.480728
0.147891 -0.699060 0.480728
0.144412 -0.705329 0.469417
0.144412 -0.717868 0.469417
0.144412 -0.724138 0.469417
0.095694 -0.749216 0.311060
0.002278 0.774295 0.005461
0.002278 0.768025 0.005461
0.006833 0.755486 0.016384
0.011389 0.749216 0.027306
0.011389 0.736677 0.027306
0.015944 0.730408 0.038229
0.020500 0.724138 0.049151
0.020500 0.711599 0.049151
0.020500 0.705329 0.049151
0.020500 0.692790 0.049151
0.020500 0.686520 0.049151
0.020500 0.673981 0.049151
0.020500 0.667712 0.049151
0.020500 0.655172 0.049151
0.020500 0.648903 0.049151
0.020500 0.636364 0.049151
0.020500 0.630094 0.049151
0.025056 0.623824 0.060074
0.025056 0.611285 0.060074
0.025056 0.605016 0.060074
0.025056 0.592476 0.060074
0.025056 0.586207 0.060074
0.020500 0.573668 0.049151
0.020500 0.567398 0.049151
0.020500 0.554859 0.049151
0.020500 0.548589 0.049151
0.020500 0.542320 0.049151
0.020500 0.529781 0.049151
0.020500 0.523511 0.049151
0.015944 0.510972 0.038229
0.015944 0.504702 0.038229
0.015944 0.492163 0.038229
0.020500 0.485893 0.049151
0.034167 0.473354 0.081919
0.043278 0.467085 0.103764
0.066055 0.454545 0.158376
0.093389 0.448276 0.223911
0.097944 0.442006 0.234833
0.107055 0.429467 0.256678
0.116166 0.423198 0.278523
0.120722 0.410658 0.289446
0.125277 0.404389 0.300368
0.129833 0.391850 0.311291
0.129833 0.385580 0.311291
0.134388 0.373041 0.322213
0.138944 0.366771 0.333136
0.143500 0.360502 0.344058
0.143500 0.347962 0.344058
0.143500 0.341693 0.344058
0.148055 0.329154 0.354981
0.148055 0.322884 0.354981
0.152611 0.310345 0.365903
0.152611 0.304075 0.365903
0.157166 0.291536 0.376826
0.161722 0.285266 0.387748
0.161722 0.272727 0.387748
0.161722 0.266458 0.387748
0.166277 0.260188 0.398671
0.166277 0.247649 0.398671
0.166277 0.241379 0.398671
0.170833 0.228840 0.409593
0.170833 0.222571 0.409593
0.175388 0.210031 0.420516
0.175388 0.203762 0.420516
0.175388 0.191223 0.420516
0.175388 0.184953 0.420516
0.175388 0.178683 0.420516
0.184499 0.166144 0.442361
0.184499 0.159875 0.442361
0.184499 0.147335 0.442361
0.184499 0.141066 0.442361
0.189055 0.128527 0.453283
0.189055 0.122257 0.453283
0.193610 0.109718 0.464206
0.193610 0.103448 0.464206
0.193610 0.090909 0.464206
0.198166 0.084639 0.475128
0.198166 0.078370 0.475128
0.198166 0.065831 0.475128
0.202722 0.059561 0.486050
0.202722 0.047022 0.486050
0.202722 0.040752 0.486050
0.202722 0.028213 0.486050
0.207277 0.021944 0.496973
0.207277 0.009404 0.496973
0.207277 0.003135 0.496973
0.207277 -0.003135 0.496973
0.211833 -0.015674 0.507895
0.211833 -0.021944 0.507895
0.211833 -0.034483 0.507895
0.211833 -0.040752 0.507895
0.211833 -0.053292 0.507895
0.211833 -0.059561 0.507895
0.211833 -0.072100 0.507895
0.211833 -0.078370 0.507895
0.207277 -0.090909 0.496973
0.207277 -0.097179 0.496973
0.207277 -0.103448 0.496973
0.207277 -0.115987 0.496973
0.207277 -0.122257 0.496973
0.207277 -0.134796 0.496973
0.207277 -0.141066 0.496973
0.207277 -0.153605 0.496973
0.202722 -0.159875 0.486050
0.202722 -0.172414 0.486050
0.202722 -0.178683 0.486050
0.198166 -0.184953 0.475128
0.198166 -0.197492 0.475128
0.198166 -0.203762 0.475128
0.198166 -0.216301 0.475128
0.198166 -0.222571 0.475128
0.198166 -0.235110 0.475128
0.198166 -0.241379 0.475128
0.198166 -0.253919 0.475128
0.198166 -0.260188 0.475128
0.198166 -0.272727 0.475128
0.202722 -0.278997 0.486050
0.202722 -0.285266 0.486050
0.202722 -0.297806 0.486050
0.202722 -0.304075 0.486050
0.198166 -0.316614 0.475128
0.198166 -0.322884 0.475128
0.198166 -0.335423 0.475128
0.198166 -0.341693 0.475128
0.198166 -0.354232 0.475128
0.198166 -0.360502 0.475128
0.198166 -0.366771 0.475128
0.198166 -0.379310 0.475128
0.198166 -0.385580 0.475128
0.202722 -0.398119 0.486050
0.202722 -0.404389 0.486050
0.202722 -0.416928 0.486050
0.202722 -0.423198 0.486050
0.202722 -0.435737 0.486050
0.202722 -0.442006 0.486050
0.202722 -0.454545 0.486050
0.202722 -0.460815 0.486050
0.202722 -0.467085 0.486050
0.202722 -0.479624 0.486050
0.202722 -0.485893 0.486050
0.202722 -0.498433 0.486050
0.202722 -0.504702 0.486050
0.202722 -0.517241 0.486050
0.202722 -0.523511 0.486050
0.202722 -0.536050 0.486050
0.202722 -0.542320 0.486050
0.202722 -0.548589 0.486050
0.202722 -0.561128 0.486050
0.202722 -0.567398 0.486050
0.202722 -0.579937 0.486050
0.202722 -0.586207 0.486050
0.202722 -0.598746 0.486050
0.202722 -0.605016 0.486050
0.202722 -0.617555 0.486050
0.202722 -0.623824 0.486050
0.202722 -0.636364 0.486050
0.202722 -0.642633 0.486050
0.202722 -0.648903 0.486050
0.198166 -0.661442 0.475128
0.198166 -0.667712 0.475128
0.193610 -0.680251 0.464206
0.193610 -0.686520 0.464206
0.189055 -0.699060 0.453283
0.184499 -0.705329 0.442361
0.184499 -0.717868 0.442361
0.125277 -0.742947 0.300368
0.129833 -0.749216 0.311291
0.129833 -0.761755 0.311291
0.161722 -0.768025 0.387748
0.161722 -0.780564 0.387748
0.189055 -1.131661 0.453283
0.184499 -1.144201 0.442361
0.184499 -1.150470 0.442361
0.184499 -1.163009 0.442361
0.184499 -1.169279 0.442361
-0.255743 0.673981 -0.136611
-0.266182 0.667712 -0.142187
-0.266182 0.655172 -0.142187
-0.255743 0.648903 -0.136611
-0.255743 0.636364 -0.136611
-0.255743 0.630094 -0.136611
-0.245305 0.623824 -0.131035
-0.245305 0.611285 -0.131035
-0.245305 0.605016 -0.131035
-0.245305 0.592476 -0.131035
-0.255743 0.586207 -0.136611
-0.266182 0.573668 -0.142187
-0.266182 0.567398 -0.142187
-0.266182 0.554859 -0.142187
-0.266182 0.548589 -0.142187
-0.266182 0.542320 -0.142187
-0.255743 0.529781 -0.136611
-0.255743 0.523511 -0.136611
-0.255743 0.510972 -0.136611
-0.255743 0.504702 -0.136611
-0.245305 0.492163 -0.131035
-0.245305 0.485893 -0.131035
-0.245305 0.473354 -0.131035
-0.245305 0.467085 -0.131035
-0.245305 0.454545 -0.131035
-0.245305 0.448276 -0.131035
-0.245305 0.442006 -0.131035
-0.234866 0.429467 -0.125459
-0.234866 0.423198 -0.125459
-0.224427 0.410658 -0.119883
-0.213989 0.404389 -0.114308
-0.224427 0.391850 -0.119883
-0.245305 0.385580 -0.131035
-0.255743 0.373041 -0.136611
-0.255743 0.366771 -0.136611
-0.266182 0.360502 -0.142187
-0.276620 0.347962 -0.147763
-0.287058 0.341693 -0.153339
-0.276620 0.329154 -0.147763
-0.276620 0.322884 -0.147763
-0.266182 0.310345 -0.142187
-0.266182 0.304075 -0.142187
-0.255743 0.291536 -0.136611
-0.245305 0.285266 -0.131035
-0.224427 0.272727 -0.119883
-0.203550 0.266458 -0.108732
-0.182674 0.260188 -0.097580
-0.182674 0.247649 -0.097580
-0.172235 0.241379 -0.092004
-0.172235 0.228840 -0.092004
-0.161797 0.222571 -0.086428
-0.161797 0.210031 -0.086428
-0.151358 0.203762 -0.080852
-0.151358 0.191223 -0.080852
-0.151358 0.184953 -0.080852
-0.151358 0.178683 -0.080852
-0.151358 0.166144 -0.080852
-0.161797 0.159875 -0.086428
-0.161797 0.147335 -0.086428
-0.172235 0.141066 -0.092004
-0.151358 0.128527 -0.080852
-0.140920 0.122257 -0.075276
-0.130481 0.109718 -0.069700
-0.140920 0.103448 -0.075276
-0.130481 0.090909 -0.069700
-0.130481 0.084639 -0.069700
-0.109604 0.078370 -0.058548
-0.099166 0.065831 -0.052972
-0.088727 0.059561 -0.047396
-0.088727 0.047022 -0.047396
-0.088727 0.040752 -0.047396
-0.099166 0.028213 -0.052972
-0.099166 0.021944 -0.052972
-0.109604 0.009404 -0.058548
-0.109604 0.003135 -0.058548
-0.109604 -0.003135 -0.058548
-0.109604 -0.015674 -0.058548
-0.109604 -0.021944 -0.058548
-0.088727 -0.034483 -0.047396
-0.088727 -0.040752 -0.047396
-0.078289 -0.053292 -0.041820
-0.078289 -0.059561 -0.041820
-0.067850 -0.072100 -0.036244
-0.057412 -0.078370 -0.030668
-0.036535 -0.090909 -0.019516
-0.026096 -0.097179 -0.013940
-0.026096 -0.103448 -0.013940
-0.036535 -0.115987 -0.019516
-0.036535 -0.122257 -0.019516
-0.036535 -0.134796 -0.019516
-0.046973 -0.141066 -0.025092
-0.067850 -0.153605 -0.036244
-0.078289 -0.159875 -0.041820
-0.078289 -0.172414 -0.041820
-0.078289 -0.178683 -0.041820
-0.067850 -0.184953 -0.036244
-0.067850 -0.197492 -0.036244
-0.046973 -0.203762 -0.025092
-0.046973 -0.216301 -0.025092
-0.046973 -0.222571 -0.025092
-0.046973 -0.235110 -0.025092
-0.287058 -0.260188 -0.153339
-0.287058 -0.272727 -0.153339
-0.297497 -0.278997 -0.158915
-0.297497 -0.285266 -0.158915
-0.297497 -0.297806 -0.158915
-0.297497 -0.304075 -0.158915
-0.297497 -0.316614 -0.158915
-0.297497 -0.322884 -0.158915
-0.287058 -0.335423 -0.153339
-0.287058 -0.341693 -0.153339
-0.297497 -0.354232 -0.158915
-0.287058 -0.360502 -0.153339
-0.287058 -0.366771 -0.153339
-0.276620 -0.379310 -0.147763
-0.287058 -0.385580 -0.153339
-0.318374 -0.398119 -0.170067
-0.339251 -0.404389 -0.181219
-0.360128 -0.416928 -0.192371
-0.370566 -0.423198 -0.197947
-0.349689 -0.435737 -0.186795
-0.349689 -0.442006 -0.186795
-0.589775 -0.454545 -0.315043
-0.621090 -0.460815 -0.331771
-0.631529 -0.467085 -0.337347
-0.641967 -0.479624 -0.342923
-0.652406 -0.485893 -0.348498
-0.652406 -0.498433 -0.348498
-0.662844 -0.504702 -0.354074
-0.662844 -0.517241 -0.354074
-0.673283 -0.523511 -0.359650
-0.683721 -0.536050 -0.365226
-0.683721 -0.542320 -0.365226
-0.694160 -0.548589 -0.370802
-0.694160 -0.561128 -0.370802
-0.694160 -0.567398 -0.370802
-0.694160 -0.579937 -0.370802
-0.694160 -0.586207 -0.370802
-0.694160 -0.598746 -0.370802
-0.694160 -0.605016 -0.370802
-0.694160 -0.617555 -0.370802
-0.694160 -0.623824 -0.370802
-0.683721 -0.636364 -0.365226
-0.673283 -0.642633 -0.359650
-0.673283 -0.648903 -0.359650
-0.662844 -0.661442 -0.354074
-0.652406 -0.667712 -0.348498
-0.641967 -0.680251 -0.342923
-0.641967 -0.686520 -0.342923
-0.631529 -0.699060 -0.337347
-0.621090 -0.705329 -0.331771
-0.600213 -0.717868 -0.320619
-0.548021 -0.724138 -0.292739
-0.558459 -0.730407 -0.298315
-0.568898 -0.742947 -0.303891
-0.568898 -0.749216 -0.303891
0.002803 0.774295 0.005211
0.002803 0.768025 0.005211
0.008408 0.755486 0.015634
0.014013 0.749216 0.026057
0.014013 0.736677 0.026057
0.019618 0.730408 0.036480
0.025223 0.724138 0.046903
0.025223 0.711599 0.046903
0.025223 0.705329 0.046903
0.025223 0.692790 0.046903
0.025223 0.686520 0.046903
0.025223 0.673981 0.046903
0.025223 0.667712 0.046903
0.025223 0.655172 0.046903
0.025223 0.648903 0.046903
0.025223 0.636364 0.046903
0.030828 0.630094 0.057326
0.030828 0.623824 0.057326
0.030828 0.611285 0.057326
0.030828 0.605016 0.057326
0.030828 0.592476 0.057326
0.030828 0.586207 0.057326
0.030828 0.573668 0.057326
0.025223 0.567398 0.046903
0.025223 0.554859 0.046903
0.025223 0.548589 0.046903
0.025223 0.542320 0.046903
0.025223 0.529781 0.046903
0.025223 0.523511 0.046903
0.019618 0.510972 0.036480
0.025223 0.504702 0.046903
0.025223 0.492163 0.046903
0.025223 0.485893 0.046903
0.025223 0.473354 0.046903
0.070064 0.467085 0.130286
0.092484 0.454545 0.171978
0.120510 0.448276 0.224092
0.126115 0.442006 0.234515
0.142930 0.429467 0.265783
0.148535 0.423198 0.276206
0.159745 0.410658 0.297052
0.159745 0.404389 0.297052
0.170956 0.391850 0.317898
0.170956 0.385580 0.317898
0.176561 0.373041 0.328321
0.176561 0.366771 0.328321
0.182166 0.360502 0.338744
0.187771 0.347962 0.349166
0.193376 0.341693 0.359589
0.193376 0.329154 0.359589
0.198981 0.322884 0.370012
0.198981 0.310345 0.370012
0.198981 0.304075 0.370012
0.204586 0.291536 0.380435
0.204586 0.285266 0.380435
0.210191 0.272727 0.390858
0.210191 0.266458 0.390858
0.215797 0.260188 0.401281
0.215797 0.247649 0.401281
0.215797 0.241379 0.401281
0.221402 0.228840 0.411704
0.221402 0.222571 0.411704
0.227007 0.210031 0.422127
0.227007 0.203762 0.422127
0.232612 0.191223 0.432549
0.232612 0.184953 0.432549
0.238217 0.178683 0.442972
0.243822 0.166144 0.453395
0.243822 0.159875 0.453395
0.243822 0.147335 0.453395
0.249427 0.141066 0.463818
0.249427 0.128527 0.463818
0.249427 0.122257 0.463818
0.255032 0.109718 0.474241
0.255032 0.103448 0.474241
0.255032 0.090909 0.474241
0.260637 0.084639 0.484664
0.260637 0.078370 0.484664
0.260637 0.065831 0.484664
0.260637 0.059561 0.484664
0.260637 0.047022 0.484664
0.260637 0.040752 0.484664
0.260637 0.028213 0.484664
0.260637 0.021944 0.484664
0.260637 0.009404 0.484664
0.260637 0.003135 0.484664
0.260637 -0.003135 0.484664
0.260637 -0.015674 0.484664
0.255032 -0.021944 0.474241
0.255032 -0.034483 0.474241
0.255032 -0.040752 0.474241
0.255032 -0.053292 0.474241
0.255032 -0.059561 0.474241
0.249427 -0.072100 0.463818
0.255032 -0.078370 0.474241
0.255032 -0.090909 0.474241
0.255032 -0.097179 0.474241
0.249427 -0.103448 0.463818
0.255032 -0.115987 0.474241
0.255032 -0.122257 0.474241
0.232612 -0.184953 0.432549
0.232612 -0.197492 0.432549
0.238217 -0.203762 0.442972
0.232612 -0.235110 0.432549
0.232612 -0.241379 0.432549
0.232612 -0.253919 0.432549
0.238217 -0.260188 0.442972
0.238217 -0.272727 0.442972
0.238217 -0.278997 0.442972
0.238217 -0.285266 0.442972
0.238217 -0.297806 0.442972
0.238217 -0.304075 0.442972
0.238217 -0.316614 0.442972
0.232612 -0.322884 0.432549
0.232612 -0.335423 0.432549
0.232612 -0.341693 0.432549
0.232612 -0.354232 0.432549
0.232612 -0.360502 0.432549
0.232612 -0.366771 0.432549
0.232612 -0.379310 0.432549
0.232612 -0.385580 0.432549
0.238217 -0.398119 0.442972
0.238217 -0.404389 0.442972
0.238217 -0.498433 0.442972
0.238217 -0.504702 0.442972
0.238217 -0.517241 0.442972
0.238217 -0.523511 0.442972
0.238217 -0.536050 0.442972
0.238217 -0.542320 0.442972
0.238217 -0.548589 0.442972
0.238217 -0.561128 0.442972
0.238217 -0.567398 0.442972
0.238217 -0.579937 0.442972
0.243822 -0.586207 0.453395
0.243822 -0.598746 0.453395
0.243822 -0.605016 0.453395
0.243822 -0.617555 0.453395
0.243822 -0.623824 0.453395
0.243822 -0.636364 0.453395
0.243822 -0.642633 0.453395
0.243822 -0.648903 0.453395
0.154140 -0.742947 0.286629
0.154140 -0.749216 0.286629
0.187771 -0.761755 0.349166
0.198981 -0.768025 0.370012
0.210191 -0.780564 0.390858
0.215797 -0.786834 0.401281
0.221402 -0.799373 0.411704
-0.003300 0.774295 -0.004911
0.003300 0.768025 0.004911
0.009901 0.755486 0.014734
0.016501 0.749216 0.024557
0.016501 0.736677 0.024557
0.023102 0.730408 0.034379
0.023102 0.724138 0.034379
0.029703 0.711599 0.044202
0.029703 0.705329 0.044202
0.029703 0.692790 0.044202
0.029703 0.686520 0.044202
0.029703 0.673981 0.044202
0.029703 0.667712 0.044202
0.036303 0.655172 0.054025
0.029703 0.648903 0.044202
0.036303 0.636364 0.054025
0.036303 0.630094 0.054025
0.042904 0.623824 0.063848
0.042904 0.611285 0.063848
0.042904 0.605016 0.063848
0.036303 0.592476 0.054025
0.036303 0.586207 0.054025
0.036303 0.573668 0.054025
0.036303 0.567398 0.054025
0.029703 0.554859 0.044202
0.029703 0.548589 0.044202
0.023102 0.542320 0.034379
0.023102 0.529781 0.034379
0.029703 0.523511 0.044202
0.029703 0.510972 0.044202
0.029703 0.504702 0.044202
0.036303 0.492163 0.054025
0.036303 0.485893 0.054025
0.036303 0.473354 0.054025
0.108910 0.467085 0.162075
0.128711 0.454545 0.191543
0.148513 0.448276 0.221011
0.155114 0.442006 0.230834
0.174916 0.429467 0.260302
0.188117 0.423198 0.279947
0.194717 0.410658 0.289770
0.201318 0.404389 0.299593
0.207919 0.391850 0.309416
0.214519 0.385580 0.319238
0.221120 0.373041 0.329061
0.221120 0.366771 0.329061
0.227720 0.360502 0.338884
0.234321 0.347962 0.348706
0.234321 0.341693 0.348706
0.234321 0.329154 0.348706
0.240922 0.322884 0.358529
0.247522 0.310345 0.368352
0.247522 0.304075 0.368352
0.247522 0.291536 0.368352
0.254123 0.285266 0.378175
0.254123 0.272727 0.378175
0.260723 0.266458 0.387997
0.267324 0.260188 0.397820
0.267324 0.247649 0.397820
0.273925 0.241379 0.407643
0.273925 0.228840 0.407643
0.280525 0.222571 0.417465
0.287126 0.210031 0.427288
0.293726 0.203762 0.437111
0.293726 0.191223 0.437111
0.300327 0.184953 0.446934
0.306927 0.178683 0.456756
0.306927 0.166144 0.456756
0.306927 0.159875 0.456756
0.300327 0.147335 0.446934
0.300327 0.141066 0.446934
0.306927 0.128527 0.456756
0.306927 0.122257 0.456756
0.300327 0.109718 0.446934
0.300327 0.103448 0.446934
0.300327 0.090909 0.446934
0.306927 0.084639 0.456756
0.306927 0.078370 0.456756
0.306927 0.065831 0.456756
0.306927 0.059561 0.456756
0.293726 -0.072100 0.437111
0.300327 -0.078370 0.446934
0.300327 -0.090909 0.446934
0.300327 -0.097179 0.446934
0.293726 -0.103448 0.437111
0.287126 -0.115987 0.427288
0.287126 -0.122257 0.427288
0.280525 -0.134796 0.417465
0.280525 -0.141066 0.417465
0.287126 -0.153605 0.427288
0.287126 -0.159875 0.427288
0.287126 -0.172414 0.427288
0.287126 -0.178683 0.427288
0.293726 -0.184953 0.437111
0.293726 -0.197492 0.437111
0.300327 -0.203762 0.446934
0.300327 -0.216301 0.446934
0.306927 -0.222571 0.456756
0.306927 -0.235110 0.456756
0.306927 -0.241379 0.456756
0.300327 -0.253919 0.446934
0.306927 -0.260188 0.456756
0.306927 -0.272727 0.456756
0.306927 -0.278997 0.456756
0.313528 -0.285266 0.466579
0.313528 -0.297806 0.466579
0.260723 -0.335423 0.387997
0.260723 -0.341693 0.387997
0.260723 -0.354232 0.387997
0.260723 -0.360502 0.387997
0.260723 -0.366771 0.387997
0.260723 -0.379310 0.387997
0.260723 -0.416928 0.387997
0.260723 -0.423198 0.387997
0.260723 -0.435737 0.387997
0.260723 -0.442006 0.387997
0.260723 -0.454545 0.387997
0.260723 -0.460815 0.387997
0.260723 -0.467085 0.387997
0.260723 -0.479624 0.387997
0.267324 -0.485893 0.397820
0.267324 -0.498433 0.397820
0.267324 -0.504702 0.397820
0.267324 -0.517241 0.397820
0.273925 -0.523511 0.407643
0.273925 -0.536050 0.407643
0.273925 -0.542320 0.407643
0.273925 -0.548589 0.407643
0.273925 -0.561128 0.407643
0.273925 -0.567398 0.407643
0.273925 -0.579937 0.407643
0.280525 -0.586207 0.417465
0.280525 -0.598746 0.417465
0.280525 -0.605016 0.417465
0.280525 -0.617555 0.417465
0.280525 -0.623824 0.417465
0.273925 -0.636364 0.407643
0.273925 -0.642633 0.407643
0.267324 -0.648903 0.397820
0.267324 -0.661442 0.397820
0.267324 -0.667712 0.397820
0.260723 -0.680251 0.387997
0.260723 -0.686520 0.387997
0.260723 -0.699060 0.387997
0.254123 -0.705329 0.378175
0.174916 -0.742947 0.260302
0.181516 -0.749216 0.270125
0.194717 -0.761755 0.289770
0.260723 -0.780564 0.387997
0.260723 -0.786834 0.387997
0.254123 -0.799373 0.378175
-0.003766 0.774295 -0.004564
0.003766 0.768025 0.004564
0.003766 0.755486 0.004564
0.018831 0.749216 0.022819
0.018831 0.736677 0.022819
0.026363 0.730408 0.031947
0.026363 0.724138 0.031947
0.033896 0.711599 0.041075
0.033896 0.705329 0.041075
0.033896 0.692790 0.041075
0.041428 0.686520 0.050203
0.033896 0.673981 0.041075
0.033896 0.667712 0.041075
0.033896 0.655172 0.041075
0.041428 0.648903 0.050203
0.041428 0.636364 0.050203
0.041428 0.630094 0.050203
0.041428 0.623824 0.050203
0.048961 0.611285 0.059331
0.048961 0.605016 0.059331
0.041428 0.592476 0.050203
0.041428 0.586207 0.050203
0.041428 0.573668 0.050203
0.033896 0.567398 0.041075
0.033896 0.554859 0.041075
0.041428 0.548589 0.050203
0.041428 0.542320 0.050203
0.041428 0.529781 0.050203
0.033896 0.523511 0.041075
0.033896 0.510972 0.041075
0.033896 0.504702 0.041075
0.033896 0.492163 0.041075
0.033896 0.485893 0.041075
0.033896 0.473354 0.041075
0.056493 0.467085 0.068458
0.146882 0.454545 0.177992
0.177011 0.448276 0.214503
0.207141 0.442006 0.251014
0.214673 0.429467 0.260142
0.229738 0.423198 0.278398
0.237271 0.410658 0.287525
0.244803 0.404389 0.296653
0.252335 0.391850 0.305781
0.259868 0.385580 0.314909
0.267400 0.373041 0.324037
0.267400 0.366771 0.324037
0.274933 0.360502 0.333164
0.274933 0.347962 0.333164
0.282465 0.341693 0.342292
0.289997 0.329154 0.351420
0.289997 0.322884 0.351420
0.297530 0.310345 0.360548
0.305062 0.304075 0.369676
0.312595 0.291536 0.378803
0.320127 0.285266 0.387931
0.320127 0.272727 0.387931
0.320127 0.266458 0.387931
0.320127 0.260188 0.387931
0.320127 0.247649 0.387931
0.320127 0.241379 0.387931
0.320127 0.228840 0.387931
0.320127 0.222571 0.387931
0.327659 0.210031 0.397059
0.335192 0.203762 0.406187
0.335192 0.191223 0.406187
0.335192 0.184953 0.406187
0.335192 0.178683 0.406187
0.335192 0.166144 0.406187
0.335192 0.147335 0.406187
0.335192 0.141066 0.406187
0.335192 0.128527 0.406187
0.335192 0.122257 0.406187
0.335192 0.109718 0.406187
0.335192 0.103448 0.406187
0.335192 0.090909 0.406187
0.335192 0.084639 0.406187
0.335192 0.078370 0.406187
0.335192 0.065831 0.406187
0.335192 0.059561 0.406187
0.335192 0.047022 0.406187
0.335192 0.040752 0.406187
0.335192 0.028213 0.406187
0.335192 0.021944 0.406187
0.335192 0.009404 0.406187
0.335192 0.003135 0.406187
0.335192 -0.003135 0.406187
0.335192 -0.015674 0.406187
0.327659 -0.021944 0.397059
0.327659 -0.034483 0.397059
0.327659 -0.040752 0.397059
0.327659 -0.053292 0.397059
0.335192 -0.059561 0.406187
0.327659 -0.072100 0.397059
0.327659 -0.078370 0.397059
0.320127 -0.090909 0.387931
0.312595 -0.097179 0.378803
0.312595 -0.103448 0.378803
0.312595 -0.115987 0.378803
0.312595 -0.122257 0.378803
0.312595 -0.134796 0.378803
0.312595 -0.141066 0.378803
0.305062 -0.153605 0.369676
0.312595 -0.159875 0.378803
0.312595 -0.172414 0.378803
0.305062 -0.178683 0.369676
0.305062 -0.184953 0.369676
0.305062 -0.197492 0.369676
0.305062 -0.203762 0.369676
0.305062 -0.216301 0.369676
0.305062 -0.222571 0.369676
0.305062 -0.235110 0.369676
0.305062 -0.241379 0.369676
0.305062 -0.253919 0.369676
0.312595 -0.260188 0.378803
0.312595 -0.272727 0.378803
0.312595 -0.278997 0.378803
0.312595 -0.285266 0.378803
0.312595 -0.297806 0.378803
0.320127 -0.304075 0.387931
0.320127 -0.316614 0.387931
0.297530 -0.322884 0.360548
0.274933 -0.335423 0.333164
0.274933 -0.341693 0.333164
0.274933 -0.354232 0.333164
0.274933 -0.360502 0.333164
0.274933 -0.366771 0.333164
0.274933 -0.379310 0.333164
0.274933 -0.385580 0.333164
0.282465 -0.398119 0.342292
0.282465 -0.404389 0.342292
0.282465 -0.416928 0.342292
0.282465 -0.423198 0.342292
0.282465 -0.435737 0.342292
0.289997 -0.442006 0.351420
0.289997 -0.454545 0.351420
0.289997 -0.460815 0.351420
0.297530 -0.467085 0.360548
0.297530 -0.479624 0.360548
0.297530 -0.485893 0.360548
0.297530 -0.498433 0.360548
0.289997 -0.504702 0.351420
0.289997 -0.517241 0.351420
0.289997 -0.523511 0.351420
0.289997 -0.536050 0.351420
0.297530 -0.542320 0.360548
0.297530 -0.548589 0.360548
0.297530 -0.561128 0.360548
0.305062 -0.567398 0.369676
0.305062 -0.579937 0.369676
0.305062 -0.586207 0.369676
0.305062 -0.598746 0.369676
0.305062 -0.605016 0.369676
0.305062 -0.617555 0.369676
0.305062 -0.623824 0.369676
0.305062 -0.636364 0.369676
0.297530 -0.642633 0.360548
0.297530 -0.648903 0.360548
0.297530 -0.661442 0.360548
0.289997 -0.667712 0.351420
0.282465 -0.680251 0.342292
0.289997 -0.686520 0.351420
0.289997 -0.699060 0.351420
0.282465 -0.705329 0.342292
0.199609 -0.742947 0.241886
0.207141 -0.749216 0.251014
0.214673 -0.761755 0.260142
0.229738 -0.768025 0.278398
0.312595 -0.799373 0.378803
0.004196 0.768025 0.004172
0.004196 0.755486 0.004172
0.012587 0.749216 0.012517
0.020979 0.736677 0.020862
0.029370 0.730408 0.029207
0.029370 0.724138 0.029207
0.037762 0.711599 0.037552
0.037762 0.705329 0.037552
0.046154 0.692790 0.045896
0.046154 0.686520 0.045896
0.037762 0.673981 0.037552
0.046154 0.667712 0.045896
0.046154 0.655172 0.045896
0.046154 0.648903 0.045896
0.046154 0.636364 0.045896
0.046154 0.630094 0.045896
0.054545 0.623824 0.054241
0.054545 0.611285 0.054241
0.046154 0.605016 0.045896
0.046154 0.592476 0.045896
0.046154 0.586207 0.045896
0.046154 0.573668 0.045896
0.046154 0.567398 0.045896
0.046154 0.554859 0.045896
0.046154 0.548589 0.045896
0.046154 0.542320 0.045896
0.054545 0.529781 0.054241
0.054545 0.523511 0.054241
0.046154 0.510972 0.045896
0.046154 0.504702 0.045896
0.037762 0.492163 0.037552
0.037762 0.485893 0.037552
0.046154 0.473354 0.045896
0.062937 0.467085 0.062586
0.222376 0.454545 0.221137
0.239159 0.448276 0.237827
0.247550 0.442006 0.246172
0.272725 0.429467 0.271206
0.281117 0.423198 0.279551
0.289508 0.410658 0.287896
0.297900 0.404389 0.296240
0.306291 0.391850 0.304585
0.314683 0.385580 0.312930
0.323074 0.373041 0.321275
0.331466 0.366771 0.329619
0.339857 0.360502 0.337964
0.348249 0.347962 0.346309
0.348249 0.341693 0.346309
0.348249 0.329154 0.346309
0.348249 0.322884 0.346309
0.348249 0.310345 0.346309
0.348249 0.304075 0.346309
0.348249 0.291536 0.346309
0.356640 0.285266 0.354654
0.365032 0.272727 0.362999
0.365032 0.266458 0.362999
0.365032 0.260188 0.362999
0.356640 0.247649 0.354654
0.356640 0.241379 0.354654
0.356640 0.228840 0.354654
0.356640 0.222571 0.354654
