0.593078 -1.445141 -0.629359
0.593078 -1.457680 -0.629359
0.571370 -1.470219 -0.606323
0.571370 -1.482759 -0.606323
0.571370 -1.495298 -0.606323
0.571370 -1.501567 -0.606323
0.571370 -1.514107 -0.606323
0.571370 -1.526646 -0.606323
0.571370 -1.539185 -0.606323
0.571370 -1.551724 -0.606323
0.571370 -1.564263 -0.606323
0.571370 -1.576802 -0.606323
0.571370 -1.589342 -0.606323
0.571370 -1.601881 -0.606323
0.484538 -1.789969 -0.514179
-0.342450 -0.893417 0.401808
-0.321919 -0.905956 0.377717
-0.321919 -0.918495 0.377717
-0.239792 -0.943574 0.281356
-0.075540 -0.993730 0.088634
-0.055009 -1.006270 0.064543
0.437748 -1.043887 -0.513624
0.437748 -1.056426 -0.513624
0.458280 -1.068965 -0.537714
0.540406 -1.094044 -0.634076
0.540406 -1.106583 -0.634076
0.540406 -1.119122 -0.634076
0.560938 -1.131661 -0.658166
0.560938 -1.144201 -0.658166
0.560938 -1.156740 -0.658166
0.560938 -1.169279 -0.658166
0.540406 -1.181818 -0.634076
0.540406 -1.194357 -0.634076
0.560938 -1.206897 -0.658166
0.560938 -1.219436 -0.658166
0.540406 -1.244514 -0.634076
0.540406 -1.257053 -0.634076
0.540406 -1.269593 -0.634076
0.540406 -1.282132 -0.634076
0.540406 -1.294671 -0.634076
0.540406 -1.307210 -0.634076
0.540406 -1.319749 -0.634076
0.540406 -1.332289 -0.634076
0.540406 -1.344828 -0.634076
0.540406 -1.357367 -0.634076
0.540406 -1.369906 -0.634076
0.540406 -1.382445 -0.634076
0.540406 -1.445141 -0.634076
0.540406 -1.470219 -0.634076
0.540406 -1.482759 -0.634076
0.540406 -1.495298 -0.634076
0.540406 -1.501567 -0.634076
0.540406 -1.514107 -0.634076
0.540406 -1.526646 -0.634076
0.540406 -1.539185 -0.634076
0.540406 -1.551724 -0.634076
0.540406 -1.564263 -0.634076
0.540406 -1.576802 -0.634076
0.540406 -1.589342 -0.634076
0.540406 -1.601881 -0.634076
0.519875 -1.614420 -0.609985
-0.341279 -0.868339 0.443478
-0.321975 -0.880878 0.418394
-0.321975 -0.893417 0.418394
-0.302671 -0.905956 0.393309
-0.302671 -0.918495 0.393309
-0.264063 -0.931034 0.343139
-0.225455 -0.943574 0.292970
-0.186847 -0.956113 0.242801
-0.167544 -0.968652 0.217716
-0.090328 -0.981191 0.117377
-0.071024 -0.993730 0.092292
-0.051720 -1.006270 0.067208
0.392272 -1.043887 -0.509741
0.411576 -1.056426 -0.534826
0.411576 -1.068965 -0.534826
0.488792 -1.081505 -0.635165
0.508096 -1.094044 -0.660250
0.508096 -1.106583 -0.660250
0.527400 -1.119122 -0.685334
0.527400 -1.131661 -0.685334
0.527400 -1.144201 -0.685334
0.527400 -1.156740 -0.685334
0.527400 -1.169279 -0.685334
0.527400 -1.181818 -0.685334
0.527400 -1.194357 -0.685334
0.527400 -1.206897 -0.685334
0.527400 -1.219436 -0.685334
0.527400 -1.231975 -0.685334
0.508096 -1.244514 -0.660250
0.508096 -1.257053 -0.660250
0.508096 -1.269593 -0.660250
0.508096 -1.282132 -0.660250
0.508096 -1.294671 -0.660250
0.508096 -1.307210 -0.660250
0.508096 -1.319749 -0.660250
0.508096 -1.332289 -0.660250
0.508096 -1.344828 -0.660250
0.508096 -1.357367 -0.660250
0.527400 -1.369906 -0.685334
0.527400 -1.382445 -0.685334
0.527400 -1.394984 -0.685334
0.527400 -1.407523 -0.685334
0.527400 -1.420063 -0.685334
0.527400 -1.432602 -0.685334
0.527400 -1.445141 -0.685334
0.527400 -1.457680 -0.685334
0.527400 -1.470219 -0.685334
0.527400 -1.482759 -0.685334
0.527400 -1.495298 -0.685334
0.527400 -1.501567 -0.685334
0.508096 -1.514107 -0.660250
0.508096 -1.526646 -0.660250
0.508096 -1.539185 -0.660250
0.508096 -1.551724 -0.660250
0.508096 -1.564263 -0.660250
0.508096 -1.576802 -0.660250
0.508096 -1.589342 -0.660250
0.508096 -1.601881 -0.660250
0.508096 -1.614420 -0.660250
0.488792 -1.626959 -0.635165
0.469488 -1.639498 -0.610080
0.469488 -1.652038 -0.610080
0.450184 -1.664577 -0.584995
0.450184 -1.677116 -0.584995
0.469488 -1.689655 -0.610080
0.450184 -1.702194 -0.584995
0.430880 -1.865204 -0.559911
0.450184 -1.877743 -0.584995
0.450184 -1.890282 -0.584995
0.450184 -1.902821 -0.584995
0.450184 -1.915360 -0.584995
0.450184 -1.927900 -0.584995
0.536826 -0.843260 0.157996
0.536826 -0.855799 0.157996
0.536826 -0.868339 0.157996
0.536826 -0.880878 0.157996
0.536826 -0.893417 0.157996
0.476096 -0.905956 0.140123
0.445731 -0.918495 0.131186
0.354637 -0.931034 0.104375
0.324272 -0.943574 0.095439
0.263543 -0.956113 0.077565
0.202813 -0.968652 0.059691
0.142084 -0.981191 0.041817
0.081354 -0.993730 0.023944
-0.009740 -1.006270 -0.002867
-0.040105 -1.018809 -0.011804
-0.100835 -1.031348 -0.029677
-0.161564 -1.043887 -0.047551
-0.191929 -1.056426 -0.056488
-0.252659 -1.068965 -0.074362
-0.283024 -1.081505 -0.083298
-0.708130 -1.131661 -0.208414
-0.708130 -1.144201 -0.208414
-0.738495 -1.156740 -0.217351
-0.738495 -1.169279 -0.217351
-0.738495 -1.181818 -0.217351
-0.738495 -1.194357 -0.217351
-0.738495 -1.206897 -0.217351
-0.738495 -1.219436 -0.217351
-0.738495 -1.231975 -0.217351
-0.738495 -1.244514 -0.217351
-0.738495 -1.257053 -0.217351
-0.738495 -1.269593 -0.217351
-0.738495 -1.282132 -0.217351
-0.738495 -1.294671 -0.217351
-0.738495 -1.307210 -0.217351
-0.738495 -1.319749 -0.217351
-0.738495 -1.332289 -0.217351
-0.738495 -1.344828 -0.217351
-0.738495 -1.357367 -0.217351
-0.738495 -1.369906 -0.217351
-0.738495 -1.382445 -0.217351
-0.708130 -1.394984 -0.208414
-0.708130 -1.407523 -0.208414
-0.708130 -1.420063 -0.208414
-0.708130 -1.432602 -0.208414
-0.738495 -1.445141 -0.217351
-0.738495 -1.457680 -0.217351
-0.738495 -1.470219 -0.217351
-0.738495 -1.482759 -0.217351
-0.708130 -1.495298 -0.208414
-0.647401 -1.514107 -0.190540
-0.647401 -1.526646 -0.190540
-0.647401 -1.539185 -0.190540
-0.647401 -1.551724 -0.190540
-0.647401 -1.564263 -0.190540
-0.647401 -1.576802 -0.190540
-0.647401 -1.589342 -0.190540
-0.647401 -1.601881 -0.190540
-0.647401 -1.614420 -0.190540
-0.647401 -1.626959 -0.190540
-0.556307 -1.639498 -0.163730
-0.586671 -1.652038 -0.172667
-0.586671 -1.664577 -0.172667
-0.617036 -1.677116 -0.181604
-0.617036 -1.689655 -0.181604
-0.647401 -1.827586 -0.190540
-0.617036 -1.840125 -0.181604
-0.617036 -1.852664 -0.181604
-0.647401 -1.865204 -0.190540
-0.617036 -1.877743 -0.181604
-0.318726 -0.868339 0.459954
-0.318726 -0.880878 0.459954
-0.300698 -0.893417 0.433938
-0.300698 -0.905956 0.433938
-0.282670 -0.918495 0.407921
-0.246613 -0.931034 0.355888
-0.210557 -0.943574 0.303854
-0.174500 -0.956113 0.251821
-0.156472 -0.968652 0.225804
-0.066330 -0.993730 0.095721
-0.030274 -1.006270 0.043688
0.005783 -1.018809 -0.008346
0.384378 -1.043887 -0.554696
0.384378 -1.056426 -0.554696
0.384378 -1.068965 -0.554696
0.456491 -1.081505 -0.658762
0.474519 -1.094044 -0.684779
0.474519 -1.106583 -0.684779
0.492547 -1.119122 -0.710796
0.492547 -1.131661 -0.710796
0.492547 -1.144201 -0.710796
0.492547 -1.156740 -0.710796
0.492547 -1.169279 -0.710796
0.492547 -1.181818 -0.710796
0.492547 -1.194357 -0.710796
0.492547 -1.206897 -0.710796
0.492547 -1.219436 -0.710796
0.492547 -1.231975 -0.710796
0.492547 -1.244514 -0.710796
0.492547 -1.257053 -0.710796
0.492547 -1.269593 -0.710796
0.492547 -1.282132 -0.710796
0.492547 -1.294671 -0.710796
0.492547 -1.307210 -0.710796
0.492547 -1.319749 -0.710796
0.492547 -1.332289 -0.710796
0.492547 -1.344828 -0.710796
0.492547 -1.357367 -0.710796
0.492547 -1.369906 -0.710796
0.492547 -1.382445 -0.710796
0.492547 -1.394984 -0.710796
0.492547 -1.407523 -0.710796
0.492547 -1.420063 -0.710796
0.492547 -1.432602 -0.710796
0.492547 -1.445141 -0.710796
0.492547 -1.457680 -0.710796
0.492547 -1.470219 -0.710796
0.492547 -1.482759 -0.710796
0.492547 -1.495298 -0.710796
0.492547 -1.501567 -0.710796
0.492547 -1.514107 -0.710796
0.474519 -1.526646 -0.684779
0.474519 -1.539185 -0.684779
0.474519 -1.551724 -0.684779
0.474519 -1.564263 -0.684779
0.474519 -1.576802 -0.684779
0.474519 -1.589342 -0.684779
0.474519 -1.601881 -0.684779
0.474519 -1.614420 -0.684779
0.456491 -1.626959 -0.658762
0.456491 -1.639498 -0.658762
-0.295380 -0.868339 0.475285
-0.295380 -0.880878 0.475285
-0.278672 -0.893417 0.448401
-0.278672 -0.905956 0.448401
-0.261964 -0.918495 0.421517
-0.245256 -0.931034 0.394633
-0.195133 -0.943574 0.313982
-0.161718 -0.956113 0.260214
-0.145010 -0.968652 0.233330
-0.094887 -0.981191 0.152679
-0.061471 -0.993730 0.098911
-0.028056 -1.006270 0.045144
-0.011348 -1.018809 0.018260
0.005360 -1.031348 -0.008624
0.356222 -1.056426 -0.573184
0.356222 -1.068965 -0.573184
0.356222 -1.081505 -0.573184
0.423053 -1.514107 -0.680719
-0.255951 -0.868339 0.461747
-0.271297 -0.880878 0.489431
-0.255951 -0.893417 0.461747
-0.255951 -0.905956 0.461747
-0.240606 -0.918495 0.434063
-0.225260 -0.931034 0.406379
-0.179224 -0.943574 0.323327
-0.148533 -0.956113 0.267959
-0.056460 -0.993730 0.101855
-0.041114 -1.006270 0.074171
0.373215 -1.119122 -0.673295
0.373215 -1.131661 -0.673295
0.388561 -1.144201 -0.700980
0.388561 -1.156740 -0.700980
0.388561 -1.169279 -0.700980
0.403906 -1.181818 -0.728664
0.403906 -1.194357 -0.728664
0.403906 -1.206897 -0.728664
0.388561 -1.219436 -0.700980
0.388561 -1.231975 -0.700980
0.388561 -1.244514 -0.700980
0.388561 -1.257053 -0.700980
0.388561 -1.269593 -0.700980
0.388561 -1.282132 -0.700980
0.388561 -1.294671 -0.700980
0.388561 -1.307210 -0.700980
0.388561 -1.319749 -0.700980
0.388561 -1.332289 -0.700980
0.388561 -1.344828 -0.700980
0.388561 -1.357367 -0.700980
0.388561 -1.369906 -0.700980
0.388561 -1.382445 -0.700980
0.388561 -1.394984 -0.700980
0.388561 -1.407523 -0.700980
0.388561 -1.420063 -0.700980
0.388561 -1.432602 -0.700980
0.388561 -1.445141 -0.700980
0.388561 -1.457680 -0.700980
0.388561 -1.470219 -0.700980
0.388561 -1.482759 -0.700980
0.388561 -1.495298 -0.700980
0.388561 -1.501567 -0.700980
0.388561 -1.514107 -0.700980
0.388561 -1.526646 -0.700980
0.388561 -1.539185 -0.700980
0.342524 -1.614420 -0.617928
0.342524 -1.626959 -0.617928
0.342524 -1.639498 -0.617928
-0.232594 -0.868339 0.473943
-0.232594 -0.880878 0.473943
-0.232594 -0.893417 0.473943
-0.232594 -0.905956 0.473943
-0.218648 -0.918495 0.445527
-0.204703 -0.931034 0.417112
-0.176813 -0.943574 0.360282
-0.148923 -0.956113 0.303452
-0.107088 -0.968652 0.218206
-0.079197 -0.981191 0.161376
-0.051307 -0.993730 0.104546
-0.023417 -1.006270 0.047715
0.004473 -1.018809 -0.009115
0.311266 -1.106583 -0.634248
0.325211 -1.119122 -0.662664
0.339156 -1.131661 -0.691079
0.353101 -1.144201 -0.719494
0.353101 -1.156740 -0.719494
0.353101 -1.169279 -0.719494
0.367046 -1.181818 -0.747909
0.367046 -1.194357 -0.747909
0.353101 -1.206897 -0.719494
0.353101 -1.219436 -0.719494
0.353101 -1.231975 -0.719494
0.353101 -1.244514 -0.719494
0.353101 -1.257053 -0.719494
0.353101 -1.269593 -0.719494
0.353101 -1.282132 -0.719494
0.353101 -1.294671 -0.719494
0.353101 -1.307210 -0.719494
0.353101 -1.319749 -0.719494
0.353101 -1.332289 -0.719494
0.353101 -1.344828 -0.719494
0.353101 -1.357367 -0.719494
0.353101 -1.369906 -0.719494
0.353101 -1.382445 -0.719494
0.353101 -1.394984 -0.719494
0.353101 -1.407523 -0.719494
0.353101 -1.420063 -0.719494
0.353101 -1.432602 -0.719494
0.353101 -1.445141 -0.719494
0.353101 -1.457680 -0.719494
0.353101 -1.470219 -0.719494
0.353101 -1.482759 -0.719494
0.353101 -1.495298 -0.719494
0.353101 -1.501567 -0.719494
0.353101 -1.514107 -0.719494
0.353101 -1.526646 -0.719494
0.311266 -1.564263 -0.634248
0.311266 -1.576802 -0.634248
0.311266 -1.589342 -0.634248
0.325211 -1.601881 -0.662664
0.311266 -1.614420 -0.634248
0.311266 -1.626959 -0.634248
-0.221167 -0.868339 0.514033
-0.208657 -0.880878 0.484957
-0.208657 -0.893417 0.484957
-0.208657 -0.905956 0.484957
-0.196147 -0.918495 0.455882
-0.171127 -0.931034 0.397731
-0.146107 -0.943574 0.339580
-0.121087 -0.956113 0.281429
-0.033517 -0.993730 0.077900
-0.021007 -1.006270 0.048824
0.304253 -1.131661 -0.707140
0.316763 -1.144201 -0.736215
0.316763 -1.156740 -0.736215
0.316763 -1.169279 -0.736215
0.316763 -1.181818 -0.736215
0.316763 -1.194357 -0.736215
0.316763 -1.206897 -0.736215
0.316763 -1.219436 -0.736215
0.316763 -1.231975 -0.736215
0.316763 -1.244514 -0.736215
0.316763 -1.257053 -0.736215
0.316763 -1.269593 -0.736215
0.316763 -1.282132 -0.736215
0.316763 -1.294671 -0.736215
0.316763 -1.307210 -0.736215
0.316763 -1.319749 -0.736215
0.316763 -1.332289 -0.736215
0.316763 -1.344828 -0.736215
0.316763 -1.357367 -0.736215
0.316763 -1.369906 -0.736215
0.316763 -1.382445 -0.736215
0.316763 -1.394984 -0.736215
0.316763 -1.407523 -0.736215
0.316763 -1.420063 -0.736215
0.316763 -1.432602 -0.736215
0.279233 -1.551724 -0.648989
0.279233 -1.564263 -0.648989
0.279233 -1.576802 -0.648989
0.279233 -1.589342 -0.648989
0.279233 -1.601881 -0.648989
0.279233 -1.614420 -0.648989
0.279233 -1.626959 -0.648989
0.279233 -1.639498 -0.648989
-0.184200 -0.843260 0.494764
-0.184200 -0.855799 0.494764
-0.184200 -0.868339 0.494764
-0.173156 -0.880878 0.465101
-0.173156 -0.893417 0.465101
-0.173156 -0.905956 0.465101
-0.173156 -0.918495 0.465101
-0.162112 -0.931034 0.435437
-0.128981 -0.943574 0.346447
-0.117938 -0.956113 0.316783
-0.051676 -0.981191 0.138802
-0.040632 -0.993730 0.109139
-0.018545 -1.006270 0.049812
0.014586 -1.018809 -0.039179
0.025630 -1.031348 -0.068843
0.268591 -1.131661 -0.721440
0.279634 -1.144201 -0.751104
0.279634 -1.156740 -0.751104
0.279634 -1.169279 -0.751104
0.279634 -1.181818 -0.751104
0.279634 -1.194357 -0.751104
0.279634 -1.206897 -0.751104
0.279634 -1.219436 -0.751104
0.279634 -1.231975 -0.751104
0.279634 -1.244514 -0.751104
0.290678 -1.257053 -0.780767
0.290678 -1.269593 -0.780767
0.279634 -1.282132 -0.751104
0.279634 -1.294671 -0.751104
0.279634 -1.307210 -0.751104
0.279634 -1.319749 -0.751104
0.279634 -1.332289 -0.751104
0.279634 -1.344828 -0.751104
0.279634 -1.357367 -0.751104
0.279634 -1.369906 -0.751104
0.279634 -1.382445 -0.751104
0.279634 -1.394984 -0.751104
0.279634 -1.407523 -0.751104
0.279634 -1.420063 -0.751104
0.268591 -1.432602 -0.721440
0.268591 -1.445141 -0.721440
0.279634 -1.457680 -0.751104
0.279634 -1.470219 -0.751104
0.268591 -1.482759 -0.721440
0.268591 -1.495298 -0.721440
0.246503 -1.539185 -0.662113
0.246503 -1.551724 -0.662113
0.246503 -1.564263 -0.662113
0.246503 -1.576802 -0.662113
0.246503 -1.589342 -0.662113
-0.168834 -0.830721 0.533516
-0.159284 -0.843260 0.503339
-0.159284 -0.855799 0.503339
-0.159284 -0.868339 0.503339
-0.159284 -0.880878 0.503339
-0.159284 -0.893417 0.503339
-0.159284 -0.905956 0.503339
-0.149734 -0.918495 0.473161
-0.140184 -0.931034 0.442984
-0.121084 -0.943574 0.382628
-0.092435 -0.956113 0.292096
-0.082885 -0.968652 0.261918
-0.016036 -1.006270 0.050675
0.012613 -1.018809 -0.039858
0.012613 -1.031348 -0.039858
0.108112 -1.081505 -0.341634
0.232259 -1.119122 -0.733943
0.232259 -1.131661 -0.733943
0.241809 -1.144201 -0.764120
0.241809 -1.156740 -0.764120
0.241809 -1.169279 -0.764120
0.241809 -1.181818 -0.764120
0.241809 -1.194357 -0.764120
0.241809 -1.206897 -0.764120
0.241809 -1.219436 -0.764120
0.241809 -1.231975 -0.764120
0.241809 -1.244514 -0.764120
0.241809 -1.257053 -0.764120
0.241809 -1.269593 -0.764120
0.241809 -1.282132 -0.764120
0.241809 -1.294671 -0.764120
0.232259 -1.307210 -0.733943
0.241809 -1.319749 -0.764120
0.241809 -1.332289 -0.764120
0.241809 -1.344828 -0.764120
0.241809 -1.357367 -0.764120
0.241809 -1.369906 -0.764120
0.241809 -1.382445 -0.764120
0.241809 -1.394984 -0.764120
0.241809 -1.407523 -0.764120
0.232259 -1.420063 -0.733943
0.232259 -1.432602 -0.733943
0.232259 -1.445141 -0.733943
0.232259 -1.457680 -0.733943
0.241809 -1.470219 -0.764120
0.241809 -1.482759 -0.764120
0.241809 -1.495298 -0.764120
0.232259 -1.501567 -0.733943
0.213160 -1.551724 -0.673588
0.213160 -1.564263 -0.673588
0.213160 -1.576802 -0.673588
0.213160 -1.589342 -0.673588
0.213160 -1.601881 -0.673588
0.213160 -1.614420 -0.673588
0.213160 -1.626959 -0.673588
0.213160 -1.639498 -0.673588
0.213160 -1.652038 -0.673588
0.213160 -1.664577 -0.673588
0.203610 -1.677116 -0.643410
-0.133971 -0.843260 0.510660
-0.133971 -0.855799 0.510660
-0.133971 -0.868339 0.510660
-0.133971 -0.880878 0.510660
-0.133971 -0.893417 0.510660
-0.133971 -0.905956 0.510660
-0.125939 -0.918495 0.480043
-0.125939 -0.931034 0.480043
-0.085778 -0.943574 0.326961
-0.077745 -0.956113 0.296344
-0.069713 -0.968652 0.265727
-0.037584 -0.981191 0.143261
-0.029552 -0.993730 0.112645
-0.013488 -1.006270 0.051412
0.002577 -1.018809 -0.009821
0.034705 -1.043887 -0.132287
0.058802 -1.056426 -0.224137
0.066834 -1.068965 -0.254753
0.082899 -1.081505 -0.315986
0.195349 -1.131661 -0.744617
0.203382 -1.144201 -0.775234
0.203382 -1.156740 -0.775234
0.203382 -1.169279 -0.775234
0.203382 -1.181818 -0.775234
0.203382 -1.194357 -0.775234
0.203382 -1.206897 -0.775234
0.203382 -1.219436 -0.775234
0.203382 -1.231975 -0.775234
0.203382 -1.244514 -0.775234
0.203382 -1.257053 -0.775234
0.203382 -1.269593 -0.775234
0.203382 -1.282132 -0.775234
0.203382 -1.294671 -0.775234
0.203382 -1.307210 -0.775234
0.195349 -1.319749 -0.744617
0.195349 -1.332289 -0.744617
0.203382 -1.344828 -0.775234
0.203382 -1.357367 -0.775234
0.195349 -1.369906 -0.744617
0.195349 -1.382445 -0.744617
0.195349 -1.394984 -0.744617
0.195349 -1.407523 -0.744617
0.203382 -1.420063 -0.775234
0.203382 -1.432602 -0.775234
0.203382 -1.445141 -0.775234
0.195349 -1.457680 -0.744617
0.195349 -1.470219 -0.744617
0.195349 -1.482759 -0.744617
0.195349 -1.501567 -0.744617
0.195349 -1.514107 -0.744617
0.179285 -1.551724 -0.683384
0.179285 -1.564263 -0.683384
0.179285 -1.576802 -0.683384
0.179285 -1.589342 -0.683384
0.179285 -1.601881 -0.683384
0.179285 -1.614420 -0.683384
0.179285 -1.626959 -0.683384
0.179285 -1.639498 -0.683384
-0.114819 -0.830721 0.547687
-0.114819 -0.843260 0.547687
-0.108325 -0.855799 0.516708
-0.108325 -0.868339 0.516708
-0.108325 -0.880878 0.516708
-0.108325 -0.893417 0.516708
-0.108325 -0.905956 0.516708
-0.101830 -0.918495 0.485729
-0.095335 -0.931034 0.454750
-0.075852 -0.943574 0.361812
-0.049873 -0.968652 0.237896
-0.010906 -1.006270 0.052021
0.002083 -1.018809 -0.009937
0.015073 -1.031348 -0.071896
0.028062 -1.043887 -0.133854
0.041051 -1.056426 -0.195812
0.054040 -1.068965 -0.257771
0.067029 -1.081505 -0.319729
0.080018 -1.094044 -0.381687
0.151459 -1.131661 -0.722458
0.157953 -1.144201 -0.753437
0.157953 -1.156740 -0.753437
0.157953 -1.169279 -0.753437
0.157953 -1.181818 -0.753437
0.157953 -1.194357 -0.753437
0.157953 -1.206897 -0.753437
0.157953 -1.219436 -0.753437
0.157953 -1.231975 -0.753437
0.157953 -1.244514 -0.753437
0.157953 -1.257053 -0.753437
0.164448 -1.269593 -0.784416
0.164448 -1.282132 -0.784416
0.164448 -1.294671 -0.784416
0.164448 -1.307210 -0.784416
0.164448 -1.319749 -0.784416
0.164448 -1.332289 -0.784416
0.164448 -1.344828 -0.784416
0.164448 -1.357367 -0.784416
0.164448 -1.369906 -0.784416
0.157953 -1.382445 -0.753437
0.157953 -1.394984 -0.753437
0.157953 -1.407523 -0.753437
0.157953 -1.420063 -0.753437
0.157953 -1.432602 -0.753437
0.157953 -1.445141 -0.753437
0.157953 -1.457680 -0.753437
0.157953 -1.470219 -0.753437
0.157953 -1.482759 -0.753437
0.157953 -1.495298 -0.753437
0.157953 -1.501567 -0.753437
0.157953 -1.514107 -0.753437
0.151459 -1.526646 -0.722458
0.151459 -1.539185 -0.722458
0.144964 -1.601881 -0.691479
0.144964 -1.614420 -0.691479
0.144964 -1.626959 -0.691479
0.144964 -1.639498 -0.691479
-0.085629 -0.830721 0.553003
-0.080786 -0.843260 0.521723
-0.080786 -0.855799 0.521723
-0.080786 -0.868339 0.521723
-0.080786 -0.880878 0.521723
-0.080786 -0.893417 0.521723
-0.080786 -0.905956 0.521723
-0.075942 -0.918495 0.490443
-0.071099 -0.931034 0.459163
-0.056568 -0.943574 0.365324
-0.046881 -0.956113 0.302764
-0.037194 -0.968652 0.240205
-0.022664 -0.981191 0.146365
-0.017820 -0.993730 0.115085
-0.008133 -1.006270 0.052526
0.001554 -1.018809 -0.010034
0.011241 -1.031348 -0.072594
0.020928 -1.043887 -0.135153
0.030615 -1.056426 -0.197713
0.040302 -1.068965 -0.260273
0.045145 -1.081505 -0.291553
0.103267 -1.119122 -0.666910
0.108110 -1.131661 -0.698190
0.117797 -1.144201 -0.760750
0.117797 -1.156740 -0.760750
0.122641 -1.169279 -0.792030
0.122641 -1.181818 -0.792030
0.122641 -1.194357 -0.792030
0.122641 -1.206897 -0.792030
0.122641 -1.219436 -0.792030
0.122641 -1.231975 -0.792030
0.122641 -1.244514 -0.792030
0.122641 -1.257053 -0.792030
0.122641 -1.269593 -0.792030
0.122641 -1.282132 -0.792030
0.122641 -1.294671 -0.792030
0.122641 -1.307210 -0.792030
0.122641 -1.319749 -0.792030
0.122641 -1.332289 -0.792030
0.122641 -1.344828 -0.792030
0.122641 -1.357367 -0.792030
0.122641 -1.369906 -0.792030
0.122641 -1.382445 -0.792030
0.122641 -1.394984 -0.792030
0.122641 -1.407523 -0.792030
0.122641 -1.420063 -0.792030
0.122641 -1.432602 -0.792030
0.122641 -1.445141 -0.792030
0.122641 -1.457680 -0.792030
0.122641 -1.470219 -0.792030
0.122641 -1.482759 -0.792030
0.122641 -1.495298 -0.792030
0.117797 -1.501567 -0.760750
0.117797 -1.514107 -0.760750
0.117797 -1.526646 -0.760750
0.112954 -1.539185 -0.729470
0.112954 -1.551724 -0.729470
0.108110 -1.564263 -0.698190
0.108110 -1.576802 -0.698190
0.108110 -1.589342 -0.698190
0.108110 -1.601881 -0.698190
0.108110 -1.614420 -0.698190
0.108110 -1.626959 -0.698190
-0.056286 -0.830721 0.524932
-0.056286 -0.843260 0.524932
-0.056286 -0.855799 0.524932
-0.056286 -0.868339 0.524932
-0.056286 -0.880878 0.524932
-0.056286 -0.893417 0.524932
-0.056286 -0.905956 0.524932
-0.052912 -0.918495 0.493459
-0.049537 -0.931034 0.461987
-0.036038 -0.943574 0.336099
-0.032664 -0.956113 0.304626
-0.025915 -0.968652 0.241682
-0.005667 -1.006270 0.052849
0.001083 -1.018809 -0.010096
0.007832 -1.031348 -0.073040
0.014581 -1.043887 -0.135984
0.021330 -1.056426 -0.198929
0.028080 -1.068965 -0.261873
0.031454 -1.081505 -0.293346
0.071950 -1.106583 -0.671012
0.071950 -1.119122 -0.671012
0.071950 -1.131661 -0.671012
0.078699 -1.144201 -0.733956
0.082074 -1.156740 -0.765428
0.085448 -1.169279 -0.796900
0.085448 -1.181818 -0.796900
0.085448 -1.194357 -0.796900
0.085448 -1.206897 -0.796900
0.085448 -1.219436 -0.796900
0.085448 -1.231975 -0.796900
0.085448 -1.244514 -0.796900
0.085448 -1.257053 -0.796900
0.085448 -1.269593 -0.796900
0.085448 -1.282132 -0.796900
0.085448 -1.294671 -0.796900
0.085448 -1.307210 -0.796900
0.085448 -1.319749 -0.796900
0.085448 -1.332289 -0.796900
0.085448 -1.344828 -0.796900
0.085448 -1.357367 -0.796900
0.085448 -1.369906 -0.796900
0.085448 -1.382445 -0.796900
0.085448 -1.394984 -0.796900
0.085448 -1.407523 -0.796900
0.085448 -1.420063 -0.796900
0.085448 -1.432602 -0.796900
0.085448 -1.445141 -0.796900
0.085448 -1.457680 -0.796900
0.085448 -1.470219 -0.796900
0.085448 -1.482759 -0.796900
0.085448 -1.495298 -0.796900
0.082074 -1.501567 -0.765428
0.082074 -1.514107 -0.765428
0.082074 -1.526646 -0.765428
0.082074 -1.539185 -0.765428
0.078699 -1.551724 -0.733956
0.075325 -1.564263 -0.702484
0.075325 -1.576802 -0.702484
0.075325 -1.589342 -0.702484
0.075325 -1.601881 -0.702484
0.075325 -1.614420 -0.702484
0.075325 -1.626959 -0.702484
0.574813 -0.843260 0.138425
0.544040 -0.855799 0.131014
0.544040 -0.868339 0.131014
0.544040 -0.880878 0.131014
0.544040 -0.893417 0.131014
0.513268 -0.905956 0.123604
0.451722 -0.918495 0.108782
0.359403 -0.931034 0.086550
0.297857 -0.943574 0.071729
0.267085 -0.956113 0.064319
0.174766 -0.968652 0.042087
0.143993 -0.981191 0.034676
0.082447 -0.993730 0.019855
0.020902 -1.006270 0.005033
-0.040644 -1.018809 -0.009788
-0.102190 -1.031348 -0.024609
-0.163736 -1.043887 -0.039430
-0.225282 -1.056426 -0.054252
-0.256054 -1.068965 -0.061662
-0.686874 -1.106583 -0.165411
-0.717647 -1.119122 -0.172822
-0.717647 -1.131661 -0.172822
-0.717647 -1.144201 -0.172822
-0.748420 -1.156740 -0.180233
-0.748420 -1.169279 -0.180233
-0.748420 -1.181818 -0.180233
-0.748420 -1.194357 -0.180233
-0.748420 -1.206897 -0.180233
-0.748420 -1.219436 -0.180233
-0.748420 -1.231975 -0.180233
-0.748420 -1.244514 -0.180233
-0.717647 -1.257053 -0.172822
-0.717647 -1.269593 -0.172822
-0.717647 -1.282132 -0.172822
-0.748420 -1.294671 -0.180233
-0.748420 -1.307210 -0.180233
-0.748420 -1.319749 -0.180233
-0.748420 -1.332289 -0.180233
-0.748420 -1.344828 -0.180233
-0.748420 -1.357367 -0.180233
-0.748420 -1.369906 -0.180233
-0.748420 -1.382445 -0.180233
-0.748420 -1.394984 -0.180233
-0.748420 -1.407523 -0.180233
-0.748420 -1.420063 -0.180233
-0.748420 -1.432602 -0.180233
-0.748420 -1.445141 -0.180233
-0.748420 -1.457680 -0.180233
-0.748420 -1.470219 -0.180233
-0.748420 -1.482759 -0.180233
-0.748420 -1.495298 -0.180233
-0.656102 -1.514107 -0.158001
-0.656102 -1.526646 -0.158001
-0.656102 -1.539185 -0.158001
-0.656102 -1.551724 -0.158001
-0.656102 -1.564263 -0.158001
-0.656102 -1.576802 -0.158001
-0.656102 -1.589342 -0.158001
-0.656102 -1.601881 -0.158001
-0.656102 -1.614420 -0.158001
-0.625329 -1.626959 -0.150590
-0.533010 -1.639498 -0.128358
-0.533010 -1.652038 -0.128358
-0.533010 -1.664577 -0.128358
-0.533010 -1.677116 -0.128358
-0.031825 -0.818182 0.558688
-0.031825 -0.830721 0.558688
-0.030025 -0.843260 0.527086
-0.030025 -0.855799 0.527086
-0.030025 -0.868339 0.527086
-0.030025 -0.880878 0.527086
-0.030025 -0.893417 0.527086
-0.030025 -0.905956 0.527086
-0.028225 -0.918495 0.495485
-0.026425 -0.931034 0.463883
-0.021024 -0.943574 0.369079
-0.017424 -0.956113 0.305877
-0.012024 -0.968652 0.211073
-0.008423 -0.981191 0.147870
-0.006623 -0.993730 0.116268
-0.003023 -1.006270 0.053066
0.002378 -1.018809 -0.041738
0.005978 -1.031348 -0.104941
0.007778 -1.043887 -0.136543
0.011378 -1.056426 -0.199745
0.014979 -1.068965 -0.262948
0.016779 -1.081505 -0.294550
0.040181 -1.119122 -0.705367
0.041981 -1.131661 -0.736969
0.043781 -1.144201 -0.768570
0.043781 -1.156740 -0.768570
0.045581 -1.169279 -0.800171
0.045581 -1.181818 -0.800171
0.045581 -1.194357 -0.800171
0.045581 -1.206897 -0.800171
0.045581 -1.219436 -0.800171
0.045581 -1.231975 -0.800171
0.045581 -1.244514 -0.800171
0.045581 -1.257053 -0.800171
0.045581 -1.269593 -0.800171
0.045581 -1.282132 -0.800171
0.045581 -1.294671 -0.800171
0.045581 -1.307210 -0.800171
0.045581 -1.319749 -0.800171
0.045581 -1.332289 -0.800171
0.045581 -1.344828 -0.800171
0.045581 -1.357367 -0.800171
0.045581 -1.369906 -0.800171
0.045581 -1.382445 -0.800171
0.045581 -1.394984 -0.800171
0.045581 -1.407523 -0.800171
0.045581 -1.420063 -0.800171
0.045581 -1.432602 -0.800171
0.045581 -1.445141 -0.800171
0.045581 -1.457680 -0.800171
0.045581 -1.470219 -0.800171
0.045581 -1.482759 -0.800171
0.045581 -1.495298 -0.800171
0.045581 -1.501567 -0.800171
0.043781 -1.514107 -0.768570
0.043781 -1.526646 -0.768570
0.043781 -1.539185 -0.768570
0.040181 -1.576802 -0.705367
0.040181 -1.589342 -0.705367
0.040181 -1.601881 -0.705367
0.040181 -1.614420 -0.705367
0.040181 -1.626959 -0.705367
0.038381 -1.639498 -0.673766
-0.003910 -0.818182 0.559580
-0.003689 -0.830721 0.527928
-0.003689 -0.843260 0.527928
-0.003689 -0.855799 0.527928
-0.003689 -0.868339 0.527928
-0.003689 -0.880878 0.527928
-0.003689 -0.893417 0.527928
-0.003689 -0.905956 0.527928
-0.003689 -0.918495 0.527928
-0.003246 -0.931034 0.464624
-0.002583 -0.943574 0.369669
0.000292 -1.018809 -0.041805
0.000513 -1.031348 -0.073457
0.001177 -1.043887 -0.168413
0.001398 -1.056426 -0.200064
0.001840 -1.068965 -0.263368
0.005378 -1.131661 -0.769797
0.005378 -1.144201 -0.769797
0.005378 -1.156740 -0.769797
0.005600 -1.169279 -0.801449
0.005600 -1.181818 -0.801449
0.005600 -1.194357 -0.801449
0.005600 -1.206897 -0.801449
0.005600 -1.219436 -0.801449
0.005600 -1.231975 -0.801449
0.005600 -1.244514 -0.801449
0.005600 -1.257053 -0.801449
0.005600 -1.269593 -0.801449
0.005600 -1.282132 -0.801449
0.005600 -1.294671 -0.801449
0.005600 -1.307210 -0.801449
0.005600 -1.319749 -0.801449
0.005600 -1.332289 -0.801449
0.005600 -1.344828 -0.801449
0.005600 -1.357367 -0.801449
0.005600 -1.369906 -0.801449
0.005600 -1.382445 -0.801449
0.005600 -1.394984 -0.801449
0.005600 -1.407523 -0.801449
0.005600 -1.420063 -0.801449
0.005600 -1.432602 -0.801449
0.005600 -1.445141 -0.801449
0.005600 -1.457680 -0.801449
0.005600 -1.470219 -0.801449
0.005600 -1.482759 -0.801449
0.005600 -1.495298 -0.801449
0.005600 -1.501567 -0.801449
0.005600 -1.514107 -0.801449
0.005378 -1.526646 -0.769797
0.005378 -1.539185 -0.769797
0.004715 -1.564263 -0.674842
0.004715 -1.576802 -0.674842
0.004715 -1.589342 -0.674842
0.004715 -1.601881 -0.674842
0.004715 -1.614420 -0.674842
0.022657 -0.830721 0.527454
0.022657 -0.843260 0.527454
0.022657 -0.855799 0.527454
0.022657 -0.868339 0.527454
0.022657 -0.880878 0.527454
0.022657 -0.893417 0.527454
0.022657 -0.905956 0.527454
0.022657 -0.918495 0.527454
0.019940 -0.931034 0.464207
0.015865 -0.943574 0.369337
0.013148 -0.956113 0.306090
-0.000436 -1.018809 -0.010144
-0.004511 -1.031348 -0.105015
-0.005869 -1.043887 -0.136638
-0.008586 -1.056426 -0.199885
-0.011303 -1.068965 -0.263132
-0.028962 -1.106583 -0.674236
-0.028962 -1.119122 -0.674236
-0.033038 -1.131661 -0.769107
-0.034396 -1.144201 -0.800730
-0.034396 -1.156740 -0.800730
-0.034396 -1.169279 -0.800730
-0.034396 -1.181818 -0.800730
-0.034396 -1.194357 -0.800730
-0.034396 -1.206897 -0.800730
-0.034396 -1.219436 -0.800730
-0.034396 -1.231975 -0.800730
-0.034396 -1.244514 -0.800730
-0.034396 -1.257053 -0.800730
-0.034396 -1.269593 -0.800730
-0.034396 -1.282132 -0.800730
-0.034396 -1.294671 -0.800730
-0.034396 -1.307210 -0.800730
-0.034396 -1.319749 -0.800730
-0.034396 -1.332289 -0.800730
-0.034396 -1.344828 -0.800730
-0.034396 -1.357367 -0.800730
-0.034396 -1.369906 -0.800730
-0.034396 -1.382445 -0.800730
-0.034396 -1.394984 -0.800730
-0.034396 -1.407523 -0.800730
-0.034396 -1.420063 -0.800730
-0.034396 -1.432602 -0.800730
-0.034396 -1.445141 -0.800730
-0.034396 -1.457680 -0.800730
-0.034396 -1.470219 -0.800730
-0.034396 -1.482759 -0.800730
-0.034396 -1.495298 -0.800730
-0.033038 -1.501567 -0.769107
-0.030321 -1.589342 -0.705860
-0.030321 -1.601881 -0.705860
-0.030321 -1.614420 -0.705860
-0.030321 -1.626959 -0.705860
-0.028962 -1.639498 -0.674236
0.048947 -0.843260 0.525667
0.048947 -0.855799 0.525667
0.048947 -0.868339 0.525667
0.048947 -0.880878 0.525667
0.048947 -0.893417 0.525667
0.048947 -0.905956 0.525667
0.046012 -0.918495 0.494150
0.040143 -0.931034 0.431118
0.031339 -0.943574 0.336569
0.028405 -0.956113 0.305053
0.010797 -0.993730 0.115955
0.004928 -1.006270 0.052923
-0.003876 -1.018809 -0.041626
-0.009745 -1.031348 -0.104659
-0.012680 -1.043887 -0.136175
-0.018549 -1.056426 -0.199208
-0.027353 -1.068965 -0.293756
-0.027353 -1.081505 -0.293756
-0.065503 -1.106583 -0.703468
-0.065503 -1.119122 -0.703468
-0.068437 -1.131661 -0.734984
-0.068437 -1.144201 -0.734984
-0.071372 -1.156740 -0.766500
-0.071372 -1.169279 -0.766500
-0.071372 -1.181818 -0.766500
-0.071372 -1.194357 -0.766500
-0.074306 -1.206897 -0.798016
-0.071372 -1.219436 -0.766500
-0.071372 -1.231975 -0.766500
-0.074306 -1.244514 -0.798016
-0.074306 -1.257053 -0.798016
-0.074306 -1.269593 -0.798016
-0.074306 -1.282132 -0.798016
-0.074306 -1.382445 -0.798016
-0.071372 -1.394984 -0.766500
-0.071372 -1.407523 -0.766500
-0.074306 -1.420063 -0.798016
-0.074306 -1.432602 -0.798016
-0.071372 -1.445141 -0.766500
-0.071372 -1.457680 -0.766500
-0.071372 -1.470219 -0.766500
-0.071372 -1.482759 -0.766500
-0.071372 -1.495298 -0.766500
-0.071372 -1.501567 -0.766500
-0.071372 -1.514107 -0.766500
-0.062568 -1.551724 -0.671952
-0.059633 -1.564263 -0.640435
-0.059633 -1.739812 -0.640435
-0.059633 -1.752351 -0.640435
0.075114 -0.843260 0.522570
0.075114 -0.855799 0.522570
0.075114 -0.868339 0.522570
0.075114 -0.880878 0.522570
0.075114 -0.893417 0.522570
0.075114 -0.905956 0.522570
0.075114 -0.918495 0.522570
0.061604 -0.931034 0.428578
0.052597 -0.943574 0.365917
0.012066 -0.993730 0.083942
0.012066 -1.006270 0.083942
-0.001445 -1.018809 -0.010050
-0.010452 -1.031348 -0.072711
-0.019459 -1.043887 -0.135373
-0.028465 -1.056426 -0.198034
-0.037472 -1.068965 -0.260695
-0.091514 -1.094044 -0.636662
-0.091514 -1.106583 -0.636662
-0.096018 -1.119122 -0.667993
-0.105024 -1.131661 -0.730654
-0.109528 -1.144201 -0.761984
-0.109528 -1.156740 -0.761984
-0.109528 -1.169279 -0.761984
-0.109528 -1.181818 -0.761984
-0.109528 -1.194357 -0.761984
-0.109528 -1.206897 -0.761984
-0.109528 -1.219436 -0.761984
-0.109528 -1.231975 -0.761984
-0.109528 -1.244514 -0.761984
-0.109528 -1.282132 -0.761984
-0.109528 -1.294671 -0.761984
-0.109528 -1.307210 -0.761984
-0.109528 -1.319749 -0.761984
-0.109528 -1.332289 -0.761984
-0.109528 -1.344828 -0.761984
-0.109528 -1.357367 -0.761984
-0.109528 -1.369906 -0.761984
-0.109528 -1.382445 -0.761984
-0.109528 -1.394984 -0.761984
-0.109528 -1.407523 -0.761984
-0.109528 -1.420063 -0.761984
-0.109528 -1.432602 -0.761984
-0.109528 -1.445141 -0.761984
-0.109528 -1.457680 -0.761984
-0.109528 -1.470219 -0.761984
-0.109528 -1.482759 -0.761984
-0.109528 -1.495298 -0.761984
-0.109528 -1.501567 -0.761984
-0.109528 -1.514107 -0.761984
-0.091514 -1.601881 -0.636662
-0.091514 -1.614420 -0.636662
-0.096018 -1.626959 -0.667993
0.104324 -0.843260 0.517531
0.104324 -0.855799 0.517531
0.104324 -0.868339 0.517531
0.104324 -0.880878 0.517531
0.104324 -0.893417 0.517531
0.104324 -0.905956 0.517531
0.104324 -0.918495 0.517531
0.098070 -0.931034 0.486502
-0.120847 -1.043887 -0.599494
-0.120847 -1.056426 -0.599494
-0.127101 -1.068965 -0.630522
-0.133356 -1.081505 -0.661551
-0.133356 -1.094044 -0.661551
-0.133356 -1.106583 -0.661551
-0.139611 -1.119122 -0.692579
-0.152120 -1.131661 -0.754636
-0.152120 -1.144201 -0.754636
-0.152120 -1.156740 -0.754636
-0.152120 -1.169279 -0.754636
-0.152120 -1.181818 -0.754636
-0.152120 -1.194357 -0.754636
-0.152120 -1.206897 -0.754636
-0.152120 -1.219436 -0.754636
-0.152120 -1.231975 -0.754636
-0.152120 -1.244514 -0.754636
-0.152120 -1.257053 -0.754636
-0.152120 -1.269593 -0.754636
-0.152120 -1.282132 -0.754636
-0.152120 -1.294671 -0.754636
-0.152120 -1.307210 -0.754636
-0.152120 -1.319749 -0.754636
-0.152120 -1.332289 -0.754636
-0.152120 -1.344828 -0.754636
-0.152120 -1.357367 -0.754636
-0.152120 -1.369906 -0.754636
-0.152120 -1.382445 -0.754636
-0.152120 -1.394984 -0.754636
-0.152120 -1.407523 -0.754636
-0.152120 -1.420063 -0.754636
-0.152120 -1.432602 -0.754636
-0.152120 -1.445141 -0.754636
-0.152120 -1.457680 -0.754636
-0.152120 -1.470219 -0.754636
-0.152120 -1.482759 -0.754636
-0.152120 -1.495298 -0.754636
-0.152120 -1.501567 -0.754636
-0.152120 -1.514107 -0.754636
0.134427 -0.880878 0.543207
0.126823 -0.893417 0.512481
0.126823 -0.905956 0.512481
0.126823 -0.918495 0.512481
0.096409 -0.931034 0.389578
0.088805 -0.943574 0.358853
-0.154513 -1.043887 -0.624371
-0.162116 -1.056426 -0.655097
-0.184927 -1.068965 -0.747274
-0.184927 -1.081505 -0.747274
-0.184927 -1.094044 -0.747274
-0.192531 -1.106583 -0.778000
-0.200135 -1.119122 -0.808725
-0.200135 -1.131661 -0.808725
-0.200135 -1.144201 -0.808725
-0.200135 -1.156740 -0.808725
-0.200135 -1.169279 -0.808725
-0.200135 -1.181818 -0.808725
-0.200135 -1.194357 -0.808725
-0.200135 -1.206897 -0.808725
-0.200135 -1.219436 -0.808725
-0.200135 -1.231975 -0.808725
-0.200135 -1.244514 -0.808725
-0.200135 -1.257053 -0.808725
-0.200135 -1.269593 -0.808725
-0.200135 -1.282132 -0.808725
-0.200135 -1.294671 -0.808725
-0.200135 -1.307210 -0.808725
-0.200135 -1.319749 -0.808725
-0.200135 -1.332289 -0.808725
-0.200135 -1.344828 -0.808725
-0.200135 -1.357367 -0.808725
-0.200135 -1.369906 -0.808725
-0.200135 -1.382445 -0.808725
-0.200135 -1.394984 -0.808725
-0.200135 -1.407523 -0.808725
-0.200135 -1.420063 -0.808725
-0.200135 -1.432602 -0.808725
-0.200135 -1.445141 -0.808725
-0.200135 -1.457680 -0.808725
-0.200135 -1.470219 -0.808725
-0.200135 -1.482759 -0.808725
-0.200135 -1.495298 -0.808725
-0.200135 -1.501567 -0.808725
-0.200135 -1.514107 -0.808725
-0.200135 -1.526646 -0.808725
-0.200135 -1.539185 -0.808725
-0.200135 -1.551724 -0.808725
-0.200135 -1.564263 -0.808725
-0.200135 -1.576802 -0.808725
-0.192531 -1.589342 -0.778000
-0.169720 -1.664577 -0.685822
-0.169720 -1.677116 -0.685822
-0.177324 -1.777430 -0.716548
0.170490 -0.868339 0.566132
0.161363 -0.880878 0.535823
0.152235 -0.893417 0.505515
0.152235 -0.905956 0.505515
0.152235 -0.918495 0.505515
0.115726 -0.931034 0.384283
-0.194600 -1.043887 -0.646192
-0.221982 -1.068965 -0.737116
-0.231109 -1.081505 -0.767425
-0.231109 -1.094044 -0.767425
-0.240236 -1.106583 -0.797733
-0.240236 -1.119122 -0.797733
-0.240236 -1.131661 -0.797733
-0.240236 -1.144201 -0.797733
-0.240236 -1.156740 -0.797733
-0.240236 -1.169279 -0.797733
-0.240236 -1.181818 -0.797733
-0.240236 -1.194357 -0.797733
-0.240236 -1.206897 -0.797733
-0.240236 -1.219436 -0.797733
-0.240236 -1.231975 -0.797733
-0.240236 -1.244514 -0.797733
-0.240236 -1.257053 -0.797733
-0.240236 -1.269593 -0.797733
-0.240236 -1.282132 -0.797733
-0.240236 -1.294671 -0.797733
-0.240236 -1.307210 -0.797733
-0.240236 -1.319749 -0.797733
-0.240236 -1.332289 -0.797733
-0.240236 -1.344828 -0.797733
-0.240236 -1.357367 -0.797733
-0.240236 -1.369906 -0.797733
-0.240236 -1.382445 -0.797733
-0.240236 -1.394984 -0.797733
-0.240236 -1.407523 -0.797733
-0.240236 -1.420063 -0.797733
-0.240236 -1.432602 -0.797733
-0.240236 -1.445141 -0.797733
-0.240236 -1.457680 -0.797733
-0.240236 -1.470219 -0.797733
-0.240236 -1.482759 -0.797733
-0.231109 -1.495298 -0.767425
-0.231109 -1.501567 -0.767425
-0.240236 -1.514107 -0.797733
-0.240236 -1.526646 -0.797733
-0.240236 -1.539185 -0.797733
-0.240236 -1.551724 -0.797733
-0.240236 -1.564263 -0.797733
-0.240236 -1.576802 -0.797733
-0.231109 -1.589342 -0.767425
0.177269 -0.868339 0.497290
0.187897 -0.880878 0.527105
0.177269 -0.893417 0.497290
0.177269 -0.905956 0.497290
0.177269 -0.918495 0.497290
-0.247856 -1.056426 -0.695307
-0.258484 -1.068965 -0.725122
-0.258484 -1.081505 -0.725122
-0.269112 -1.094044 -0.754937
-0.269112 -1.106583 -0.754937
-0.279740 -1.119122 -0.784752
-0.279740 -1.131661 -0.784752
-0.279740 -1.144201 -0.784752
-0.279740 -1.156740 -0.784752
-0.279740 -1.169279 -0.784752
-0.279740 -1.181818 -0.784752
-0.279740 -1.194357 -0.784752
-0.279740 -1.206897 -0.784752
-0.279740 -1.219436 -0.784752
-0.279740 -1.231975 -0.784752
-0.279740 -1.244514 -0.784752
-0.279740 -1.257053 -0.784752
-0.279740 -1.269593 -0.784752
-0.279740 -1.282132 -0.784752
-0.269112 -1.294671 -0.754937
-0.269112 -1.457680 -0.754937
-0.269112 -1.470219 -0.754937
-0.269112 -1.482759 -0.754937
-0.269112 -1.495298 -0.754937
-0.269112 -1.501567 -0.754937
-0.269112 -1.514107 -0.754937
-0.269112 -1.526646 -0.754937
-0.269112 -1.539185 -0.754937
-0.269112 -1.551724 -0.754937
-0.269112 -1.564263 -0.754937
-0.269112 -1.576802 -0.754937
-0.269112 -1.589342 -0.754937
0.213963 -0.868339 0.517073
0.201861 -0.880878 0.487825
0.201861 -0.893417 0.487825
0.201861 -0.905956 0.487825
0.201861 -0.918495 0.487825
0.129246 -0.943574 0.312340
0.129246 -0.956113 0.312340
-0.233830 -1.031348 -0.565085
-0.233830 -1.043887 -0.565085
-0.282240 -1.056426 -0.682074
-0.282240 -1.068965 -0.682074
-0.282240 -1.081505 -0.682074
-0.282240 -1.094044 -0.682074
-0.294343 -1.106583 -0.711322
-0.306445 -1.169279 -0.740569
-0.306445 -1.181818 -0.740569
-0.306445 -1.194357 -0.740569
-0.306445 -1.206897 -0.740569
-0.306445 -1.219436 -0.740569
-0.306445 -1.231975 -0.740569
-0.294343 -1.394984 -0.711322
-0.282240 -1.407523 -0.682074
-0.294343 -1.420063 -0.711322
-0.294343 -1.432602 -0.711322
-0.294343 -1.501567 -0.711322
-0.294343 -1.514107 -0.711322
-0.306445 -1.564263 -0.740569
-0.306445 -1.576802 -0.740569
0.549900 -0.855799 0.103706
0.549900 -0.868339 0.103706
0.549900 -0.880878 0.103706
0.549900 -0.893417 0.103706
0.518795 -0.905956 0.097840
0.456587 -0.918495 0.086108
0.363274 -0.931034 0.068510
0.332170 -0.943574 0.062644
0.238857 -0.956113 0.045046
0.176648 -0.968652 0.033314
0.145544 -0.981191 0.027448
0.052231 -0.993730 0.009850
0.021127 -1.006270 0.003984
-0.041082 -1.018809 -0.007748
-0.103291 -1.031348 -0.019480
-0.165499 -1.043887 -0.031212
-0.196604 -1.056426 -0.037078
-0.258812 -1.068965 -0.048809
-0.600960 -1.094044 -0.113335
-0.694272 -1.106583 -0.130933
-0.725376 -1.119122 -0.136799
-0.725376 -1.131661 -0.136799
-0.756481 -1.144201 -0.142665
-0.756481 -1.156740 -0.142665
-0.756481 -1.169279 -0.142665
-0.756481 -1.181818 -0.142665
-0.756481 -1.194357 -0.142665
-0.756481 -1.206897 -0.142665
-0.756481 -1.219436 -0.142665
-0.756481 -1.231975 -0.142665
-0.756481 -1.244514 -0.142665
-0.756481 -1.257053 -0.142665
-0.756481 -1.269593 -0.142665
-0.725376 -1.282132 -0.136799
-0.725376 -1.294671 -0.136799
-0.725376 -1.307210 -0.136799
-0.725376 -1.319749 -0.136799
-0.725376 -1.332289 -0.136799
-0.756481 -1.344828 -0.142665
-0.756481 -1.357367 -0.142665
-0.725376 -1.369906 -0.136799
-0.725376 -1.382445 -0.136799
-0.725376 -1.394984 -0.136799
-0.756481 -1.407523 -0.142665
-0.756481 -1.420063 -0.142665
-0.756481 -1.432602 -0.142665
-0.756481 -1.445141 -0.142665
-0.756481 -1.457680 -0.142665
-0.756481 -1.470219 -0.142665
-0.756481 -1.482759 -0.142665
-0.756481 -1.495298 -0.142665
-0.725376 -1.501567 -0.136799
-0.694272 -1.514107 -0.130933
-0.663168 -1.526646 -0.125067
-0.663168 -1.539185 -0.125067
-0.663168 -1.551724 -0.125067
-0.663168 -1.564263 -0.125067
-0.663168 -1.576802 -0.125067
-0.663168 -1.589342 -0.125067
-0.663168 -1.601881 -0.125067
-0.507647 -1.639498 -0.095737
-0.507647 -1.652038 -0.095737
-0.507647 -1.664577 -0.095737
-0.507647 -1.677116 -0.095737
0.239496 -0.868339 0.505753
0.239496 -0.880878 0.505753
0.225950 -0.893417 0.477146
0.225950 -0.905956 0.477146
0.212403 -0.918495 0.448539
0.185309 -0.931034 0.391324
-0.275281 -1.018809 -0.581321
-0.275281 -1.031348 -0.581321
-0.275281 -1.043887 -0.581321
-0.288828 -1.056426 -0.609928
-0.343015 -1.156740 -0.724357
-0.343015 -1.169279 -0.724357
-0.343015 -1.181818 -0.724357
-0.343015 -1.194357 -0.724357
-0.343015 -1.206897 -0.724357
-0.343015 -1.219436 -0.724357
-0.343015 -1.231975 -0.724357
-0.343015 -1.244514 -0.724357
-0.343015 -1.257053 -0.724357
-0.343015 -1.269593 -0.724357
-0.343015 -1.282132 -0.724357
-0.343015 -1.294671 -0.724357
-0.343015 -1.332289 -0.724357
-0.343015 -1.344828 -0.724357
-0.343015 -1.357367 -0.724357
-0.343015 -1.407523 -0.724357
-0.343015 -1.420063 -0.724357
-0.343015 -1.432602 -0.724357
-0.343015 -1.445141 -0.724357
-0.343015 -1.457680 -0.724357
-0.343015 -1.470219 -0.724357
-0.343015 -1.482759 -0.724357
-0.343015 -1.495298 -0.724357
-0.343015 -1.501567 -0.724357
-0.343015 -1.514107 -0.724357
-0.343015 -1.526646 -0.724357
-0.343015 -1.539185 -0.724357
-0.343015 -1.551724 -0.724357
-0.343015 -1.564263 -0.724357
-0.343015 -1.576802 -0.724357
0.264433 -0.880878 0.493173
0.249475 -0.893417 0.465278
0.249475 -0.905956 0.465278
0.249475 -0.918495 0.465278
-0.348815 -1.056426 -0.650548
-0.333858 -1.068965 -0.622653
-0.378729 -1.156740 -0.706340
-0.378729 -1.169279 -0.706340
-0.378729 -1.181818 -0.706340
-0.378729 -1.194357 -0.706340
-0.378729 -1.206897 -0.706340
-0.378729 -1.219436 -0.706340
-0.378729 -1.231975 -0.706340
-0.378729 -1.244514 -0.706340
-0.378729 -1.257053 -0.706340
-0.348815 -1.307210 -0.650548
-0.363772 -1.319749 -0.678444
-0.363772 -1.332289 -0.678444
-0.378729 -1.344828 -0.706340
-0.378729 -1.495298 -0.706340
-0.378729 -1.501567 -0.706340
-0.378729 -1.514107 -0.706340
-0.378729 -1.526646 -0.706340
-0.378729 -1.539185 -0.706340
-0.363772 -1.551724 -0.678444
-0.363772 -1.564263 -0.678444
-0.378729 -1.576802 -0.706340
-0.333858 -1.664577 -0.622653
0.309769 -0.868339 0.503602
0.293186 -0.880878 0.476641
0.293186 -0.893417 0.476641
0.276602 -0.905956 0.449681
0.260019 -0.918495 0.422720
0.226851 -0.931034 0.368799
0.210268 -0.943574 0.341838
0.177100 -0.956113 0.287917
0.127349 -0.968652 0.207036
0.094182 -0.981191 0.153115
-0.320409 -1.018809 -0.520899
-0.336993 -1.031348 -0.547859
-0.336993 -1.043887 -0.547859
-0.353576 -1.056426 -0.574820
-0.370160 -1.068965 -0.601780
-0.386743 -1.081505 -0.628740
-0.386743 -1.094044 -0.628740
-0.403327 -1.106583 -0.655701
-0.403327 -1.119122 -0.655701
-0.403327 -1.131661 -0.655701
-0.403327 -1.144201 -0.655701
-0.419911 -1.156740 -0.682662
-0.419911 -1.169279 -0.682662
-0.419911 -1.181818 -0.682662
-0.419911 -1.194357 -0.682662
-0.419911 -1.206897 -0.682662
-0.419911 -1.219436 -0.682662
-0.419911 -1.231975 -0.682662
-0.419911 -1.282132 -0.682662
-0.419911 -1.294671 -0.682662
-0.419911 -1.307210 -0.682662
-0.419911 -1.319749 -0.682662
-0.419911 -1.332289 -0.682662
-0.419911 -1.344828 -0.682662
-0.419911 -1.357367 -0.682662
-0.419911 -1.369906 -0.682662
-0.419911 -1.382445 -0.682662
-0.419911 -1.394984 -0.682662
-0.419911 -1.407523 -0.682662
-0.419911 -1.470219 -0.682662
-0.419911 -1.482759 -0.682662
-0.419911 -1.495298 -0.682662
-0.403327 -1.501567 -0.655701
-0.419911 -1.551724 -0.682662
-0.419911 -1.564263 -0.682662
-0.403327 -1.576802 -0.655701
-0.403327 -1.589342 -0.655701
-0.403327 -1.601881 -0.655701
0.329932 -0.868339 0.490629
0.312269 -0.880878 0.464363
0.312269 -0.893417 0.464363
0.294606 -0.905956 0.438097
0.276943 -0.918495 0.411831
0.241617 -0.931034 0.359298
0.206291 -0.943574 0.306767
0.170965 -0.956113 0.254235
0.135639 -0.968652 0.201703
0.100312 -0.981191 0.149170
0.064986 -0.993730 0.096638
0.047323 -1.006270 0.070372
-0.358927 -1.031348 -0.533746
-0.358927 -1.043887 -0.533746
-0.376590 -1.056426 -0.560012
-0.394253 -1.068965 -0.586278
-0.411916 -1.081505 -0.612544
-0.429579 -1.094044 -0.638810
-0.429579 -1.106583 -0.638810
-0.429579 -1.119122 -0.638810
-0.429579 -1.131661 -0.638810
-0.447243 -1.144201 -0.665076
-0.447243 -1.156740 -0.665076
-0.447243 -1.169279 -0.665076
-0.447243 -1.181818 -0.665076
-0.447243 -1.194357 -0.665076
-0.447243 -1.206897 -0.665076
-0.447243 -1.219436 -0.665076
-0.447243 -1.231975 -0.665076
-0.447243 -1.244514 -0.665076
-0.447243 -1.257053 -0.665076
-0.447243 -1.269593 -0.665076
-0.429579 -1.282132 -0.638810
-0.429579 -1.294671 -0.638810
-0.429579 -1.307210 -0.638810
-0.429579 -1.319749 -0.638810
-0.429579 -1.332289 -0.638810
-0.429579 -1.344828 -0.638810
-0.429579 -1.357367 -0.638810
-0.429579 -1.369906 -0.638810
-0.429579 -1.382445 -0.638810
-0.429579 -1.394984 -0.638810
-0.429579 -1.407523 -0.638810
-0.411916 -1.420063 -0.612544
-0.411916 -1.432602 -0.612544
-0.411916 -1.445141 -0.612544
-0.429579 -1.457680 -0.638810
-0.447243 -1.470219 -0.665076
-0.447243 -1.482759 -0.665076
-0.447243 -1.495298 -0.665076
-0.447243 -1.501567 -0.665076
-0.447243 -1.514107 -0.665076
-0.447243 -1.526646 -0.665076
-0.447243 -1.539185 -0.665076
-0.447243 -1.551724 -0.665076
-0.447243 -1.564263 -0.665076
-0.447243 -1.576802 -0.665076
-0.429579 -1.589342 -0.638810
-0.429579 -1.601881 -0.638810
-0.411916 -1.614420 -0.612544
-0.411916 -1.626959 -0.612544
-0.411916 -1.639498 -0.612544
-0.394253 -1.852664 -0.586278
-0.394253 -1.865204 -0.586278
0.335049 -0.868339 0.448204
0.335049 -0.880878 0.448204
0.316098 -0.893417 0.422852
0.316098 -0.905956 0.422852
0.297146 -0.918495 0.397500
0.259243 -0.931034 0.346796
0.240291 -0.943574 0.321444
0.183437 -0.956113 0.245388
0.145534 -0.968652 0.194684
0.107630 -0.981191 0.143980
0.069727 -0.993730 0.093276
0.031824 -1.006270 0.042572
0.012872 -1.018809 0.017220
-0.385111 -1.043887 -0.515173
-0.404063 -1.056426 -0.540525
-0.404063 -1.068965 -0.540525
-0.479869 -1.081505 -0.641932
-0.479869 -1.094044 -0.641932
-0.479869 -1.106583 -0.641932
-0.479869 -1.119122 -0.641932
-0.479869 -1.131661 -0.641932
-0.479869 -1.144201 -0.641932
-0.479869 -1.156740 -0.641932
-0.479869 -1.169279 -0.641932
-0.479869 -1.181818 -0.641932
-0.479869 -1.194357 -0.641932
-0.479869 -1.206897 -0.641932
-0.479869 -1.219436 -0.641932
-0.479869 -1.231975 -0.641932
-0.479869 -1.244514 -0.641932
-0.479869 -1.257053 -0.641932
-0.479869 -1.269593 -0.641932
-0.479869 -1.282132 -0.641932
-0.479869 -1.294671 -0.641932
-0.479869 -1.307210 -0.641932
-0.479869 -1.319749 -0.641932
-0.479869 -1.332289 -0.641932
-0.479869 -1.344828 -0.641932
-0.479869 -1.357367 -0.641932
-0.479869 -1.369906 -0.641932
-0.479869 -1.382445 -0.641932
-0.479869 -1.394984 -0.641932
-0.479869 -1.407523 -0.641932
-0.479869 -1.420063 -0.641932
-0.479869 -1.432602 -0.641932
-0.479869 -1.445141 -0.641932
-0.479869 -1.457680 -0.641932
-0.479869 -1.470219 -0.641932
-0.479869 -1.482759 -0.641932
-0.479869 -1.495298 -0.641932
-0.479869 -1.501567 -0.641932
-0.479869 -1.514107 -0.641932
-0.479869 -1.526646 -0.641932
-0.479869 -1.539185 -0.641932
-0.479869 -1.551724 -0.641932
-0.479869 -1.564263 -0.641932
-0.479869 -1.576802 -0.641932
-0.479869 -1.589342 -0.641932
-0.460918 -1.601881 -0.616581
-0.460918 -1.614420 -0.616581
0.377188 -0.855799 0.455303
0.377188 -0.868339 0.455303
0.356995 -0.880878 0.430928
