0.426738 -0.719261 0.581852
0.426712 -0.738281 0.581817
0.400654 -0.757321 0.546287
0.400629 -0.776342 0.546253
0.400605 -0.795365 0.546221
0.400582 -0.814390 0.546188
0.400559 -0.833415 0.546157
0.374507 -0.852458 0.510635
0.374485 -0.871485 0.510606
0.374464 -0.890513 0.510578
0.374445 -0.909543 0.510551
0.400454 -0.928558 0.546014
0.400435 -0.947590 0.545989
0.400417 -0.966623 0.545964
0.400400 -0.985657 0.545941
0.400384 -1.004692 0.545919
0.400369 -1.023728 0.545898
0.400355 -1.042764 0.545879
0.400342 -1.061801 0.545861
0.426358 -1.080831 0.581334
0.426347 -1.099870 0.581319
0.426337 -1.118911 0.581305
0.426327 -1.137951 0.581293
0.426320 -1.156993 0.581282
0.452342 -1.176030 0.616763
0.452337 -1.195073 0.616756
0.452332 -1.214117 0.616750
0.452329 -1.233161 0.616745
0.452327 -1.252206 0.616743
0.452327 -1.271250 0.616742
0.452327 -1.290295 0.616743
0.452330 -1.309340 0.616747
0.452333 -1.328385 0.616751
0.478367 -1.347434 0.652248
0.504405 -1.366485 0.687751
0.504413 -1.385531 0.687761
0.504421 -1.404578 0.687772
0.504431 -1.423624 0.687786
0.530475 -1.442679 0.723297
0.556524 -1.461735 0.758814
0.582576 -1.480793 0.794336
0.582591 -1.499841 0.794356
0.582607 -1.518888 0.794378
0.582624 -1.537934 0.794401
0.582643 -1.556979 0.794427
0.582663 -1.576023 0.794455
0.608725 -1.595083 0.829989
0.582708 -1.614109 0.794515
0.582732 -1.633150 0.794548
0.582757 -1.652191 0.794583
0.608823 -1.671251 0.830123
0.634891 -1.690311 0.865667
0.660963 -1.709371 0.901216
0.713088 -1.728454 0.972287
0.713118 -1.747492 0.972328
0.791310 -1.766599 1.078942
0.817400 -1.785660 1.114515
0.817431 -1.804696 1.114557
0.791405 -1.823705 1.079072
0.895686 -1.842838 1.221257
0.947856 -1.861919 1.292391
1.000036 -1.880999 1.363538
1.000067 -1.900030 1.363580
1.000100 -1.919058 1.363624
1.000133 -1.938084 1.363669
1.000166 -1.957108 1.363715
1.000200 -1.976128 1.363761
1.000236 -1.995147 1.363810
1.000271 -2.014162 1.363858
0.974240 -2.033147 1.328364
0.974278 -2.052156 1.328416
0.974316 -2.071163 1.328469
0.974356 -2.090167 1.328523
0.974396 -2.109168 1.328577
0.974436 -2.128167 1.328632
0.974477 -2.147162 1.328688
0.974519 -2.166155 1.328745
0.974560 -2.185144 1.328802
0.974602 -2.204130 1.328859
0.974645 -2.223114 1.328917
0.948633 -2.242060 1.293450
0.948677 -2.261038 1.293510
0.948722 -2.280011 1.293571
0.948766 -2.298983 1.293632
0.948811 -2.317951 1.293693
0.948856 -2.336915 1.293754
0.948901 -2.355877 1.293816
0.948946 -2.374835 1.293877
0.948991 -2.393791 1.293939
0.949037 -2.412744 1.294001
0.949082 -2.431694 1.294062
0.949127 -2.450640 1.294123
0.949172 -2.469584 1.294185
0.949217 -2.488525 1.294246
0.949261 -2.507462 1.294306
0.949305 -2.526397 1.294366
0.949349 -2.545329 1.294426
0.923357 -2.564225 1.258986
0.923401 -2.583153 1.259047
0.923445 -2.602077 1.259106
0.923488 -2.620998 1.259165
0.923530 -2.639917 1.259223
0.897543 -2.658802 1.223789
0.897585 -2.677716 1.223847
0.897627 -2.696629 1.223903
0.897667 -2.715539 1.223959
0.897708 -2.734447 1.224014
0.897747 -2.753352 1.224067
0.897785 -2.772255 1.224119
0.897822 -2.791157 1.224170
0.897858 -2.810057 1.224219
0.871873 -2.828929 1.188788
0.871907 -2.847825 1.188835
0.871941 -2.866721 1.188882
0.845955 -2.885591 1.153450
0.845987 -2.904484 1.153493
0.846018 -2.923377 1.153535
0.846047 -2.942268 1.153575
0.846075 -2.961158 1.153613
0.846101 -2.980047 1.153649
0.820110 -2.998917 1.118211
0.820134 -3.017806 1.118244
0.820156 -3.036695 1.118273
0.820177 -3.055583 1.118302
0.820196 -3.074470 1.118327
0.820213 -3.093358 1.118351
0.794214 -3.112234 1.082901
0.794228 -3.131122 1.082920
0.794240 -3.150012 1.082937
0.768236 -3.168894 1.047480
0.768243 -3.187785 1.047491
0.768249 -3.206677 1.047499
0.768253 -3.225569 1.047505
0.742239 -3.244462 1.012035
0.742239 -3.263359 1.012034
0.742236 -3.282255 1.012030
0.716214 -3.301158 0.976550
0.716207 -3.320060 0.976539
0.716197 -3.338963 0.976526
0.690165 -3.357878 0.941032
0.690150 -3.376786 0.941012
0.690133 -3.395697 0.940988
0.664090 -3.414625 0.905479
0.664067 -3.433541 0.905448
0.664042 -3.452459 0.905413
0.637987 -3.471403 0.869888
0.637956 -3.490328 0.869845
0.611892 -3.509283 0.834308
0.611855 -3.528216 0.834257
0.585781 -3.547183 0.798705
0.065371 0.440836 0.080408
0.037589 0.421828 0.046235
0.037676 0.402759 0.046343
0.037761 0.383693 0.046446
0.065705 0.364574 0.080819
0.093639 0.345464 0.115177
0.093709 0.326412 0.115263
0.093777 0.307362 0.115346
0.093841 0.288315 0.115425
0.121747 0.269229 0.149751
0.149644 0.250152 0.184064
0.177530 0.231082 0.218364
0.177576 0.212052 0.218421
0.205448 0.192994 0.252704
0.205487 0.173970 0.252752
0.233345 0.154924 0.287017
0.233376 0.135906 0.287056
0.233406 0.116889 0.287092
0.261246 0.097857 0.321337
0.289080 0.078831 0.355572
0.289098 0.059822 0.355595
0.316920 0.040805 0.389816
0.316932 0.021801 0.389831
0.316943 0.002797 0.389844
0.316951 -0.016205 0.389854
0.316957 -0.035207 0.389861
0.316961 -0.054208 0.389866
0.316963 -0.073208 0.389869
0.316963 -0.092208 0.389869
0.316962 -0.111207 0.389867
0.344750 -0.130203 0.424048
0.344745 -0.149200 0.424040
0.372526 -0.168191 0.458212
0.372516 -0.187187 0.458199
0.372504 -0.206184 0.458184
0.372490 -0.225180 0.458168
0.372476 -0.244176 0.458150
0.372460 -0.263173 0.458131
0.372443 -0.282170 0.458110
0.400207 -0.301154 0.492260
0.372406 -0.320166 0.458065
0.372386 -0.339165 0.458040
0.372365 -0.358164 0.458014
0.372343 -0.377164 0.457987
0.372321 -0.396164 0.457959
0.372298 -0.415166 0.457931
0.372274 -0.434168 0.457902
0.372249 -0.453171 0.457872
0.427774 -0.472138 0.526168
0.427747 -0.491142 0.526135
0.455494 -0.510127 0.560264
0.455466 -0.529133 0.560230
0.455438 -0.548141 0.560195
0.455409 -0.567149 0.560160
0.427608 -0.586179 0.525964
0.455352 -0.605170 0.560089
0.455324 -0.624182 0.560054
0.455295 -0.643195 0.560019
0.427496 -0.662230 0.525825
0.427468 -0.681245 0.525792
0.427440 -0.700262 0.525758
0.427413 -0.719281 0.525724
0.427386 -0.738300 0.525691
0.427360 -0.757321 0.525658
0.427333 -0.776342 0.525626
0.427308 -0.795365 0.525594
0.427283 -0.814390 0.525563
0.427258 -0.833415 0.525533
0.427234 -0.852441 0.525504
0.427211 -0.871469 0.525476
0.427189 -0.890498 0.525448
0.427167 -0.909528 0.525421
0.427146 -0.928558 0.525396
0.427126 -0.947590 0.525371
0.399345 -0.966637 0.491199
0.399327 -0.985670 0.491177
0.399310 -1.004704 0.491157
0.399294 -1.023739 0.491137
0.399280 -1.042774 0.491119
0.399266 -1.061811 0.491103
0.427014 -1.080839 0.525233
0.427003 -1.099878 0.525219
0.454754 -1.118911 0.559354
0.454745 -1.137951 0.559342
0.454737 -1.156993 0.559332
0.454729 -1.176035 0.559323
0.454724 -1.195077 0.559316
0.482483 -1.214117 0.593460
0.482479 -1.233161 0.593456
0.510243 -1.252205 0.627606
0.510242 -1.271250 0.627605
0.538011 -1.290297 0.661760
0.538013 -1.309344 0.661763
0.538016 -1.328391 0.661766
0.510253 -1.347434 0.627618
0.510260 -1.366480 0.627626
0.482504 -1.385519 0.593486
0.482513 -1.404564 0.593498
0.482524 -1.423608 0.593512
0.510300 -1.442661 0.627676
0.510314 -1.461705 0.627693
0.538094 -1.480760 0.661863
0.538111 -1.499805 0.661884
0.565897 -1.518862 0.696061
0.538148 -1.537891 0.661930
0.593706 -1.556964 0.730267
0.621501 -1.576023 0.764455
0.621524 -1.595067 0.764483
0.649323 -1.614127 0.798677
0.677127 -1.633188 0.832875
0.677154 -1.652230 0.832908
0.677181 -1.671271 0.832942
0.677210 -1.690311 0.832978
0.677241 -1.709349 0.833016
0.705052 -1.728409 0.867223
0.705085 -1.747445 0.867264
0.816262 -1.766576 1.004013
0.844088 -1.785636 1.038240
0.871917 -1.804696 1.072470
0.871952 -1.823730 1.072512
0.899785 -1.842788 1.106747
0.983228 -1.861895 1.209384
1.066694 -1.880999 1.312048
1.066728 -1.900030 1.312089
1.066762 -1.919058 1.312132
1.066797 -1.938084 1.312175
1.066833 -1.957108 1.312219
1.066869 -1.976128 1.312264
1.066907 -1.995147 1.312310
1.066945 -2.014162 1.312357
1.066984 -2.033175 1.312405
1.067024 -2.052185 1.312454
1.039260 -2.071163 1.278304
1.039302 -2.090167 1.278356
1.039345 -2.109168 1.278408
1.039387 -2.128167 1.278461
1.039431 -2.147162 1.278515
1.039476 -2.166155 1.278569
1.011725 -2.185111 1.244436
1.011771 -2.204097 1.244492
1.011818 -2.223080 1.244549
1.011864 -2.242060 1.244607
1.039702 -2.261071 1.278848
1.039749 -2.280045 1.278905
1.039795 -2.299016 1.278962
1.039842 -2.317984 1.279020
1.012103 -2.336915 1.244900
1.012151 -2.355877 1.244959
1.012199 -2.374835 1.245018
1.012247 -2.393791 1.245078
1.012295 -2.412744 1.245137
1.012344 -2.431694 1.245196
1.012391 -2.450640 1.245255
1.012440 -2.469584 1.245314
0.984712 -2.488490 1.211209
0.984761 -2.507428 1.211269
0.984809 -2.526363 1.211328
0.984857 -2.545296 1.211387
0.984904 -2.564225 1.211445
0.984951 -2.583153 1.211503
0.984997 -2.602077 1.211560
0.985044 -2.620998 1.211617
0.985089 -2.639917 1.211673
0.985134 -2.658834 1.211728
0.957415 -2.677716 1.177633
0.957458 -2.696629 1.177687
0.957502 -2.715539 1.177740
0.957545 -2.734447 1.177793
0.957587 -2.753352 1.177844
0.957627 -2.772255 1.177895
0.957667 -2.791157 1.177943
0.957706 -2.810057 1.177991
0.929988 -2.828929 1.143898
0.930025 -2.847825 1.143943
0.930061 -2.866721 1.143988
0.930096 -2.885615 1.144030
0.902377 -2.904484 1.109936
0.902409 -2.923377 1.109976
0.902440 -2.942268 1.110014
0.902470 -2.961158 1.110051
0.902498 -2.980047 1.110085
0.902525 -2.998936 1.110118
0.874801 -3.017806 1.076017
0.874824 -3.036695 1.076046
0.874846 -3.055583 1.076073
0.847118 -3.074456 1.041967
0.847136 -3.093345 1.041989
0.847153 -3.112234 1.042009
0.847168 -3.131122 1.042028
0.819432 -3.150003 1.007912
0.819443 -3.168894 1.007926
0.819451 -3.187785 1.007936
0.819458 -3.206677 1.007944
0.819462 -3.225569 1.007949
0.819464 -3.244463 1.007951
0.791713 -3.263359 0.973818
0.791710 -3.282255 0.973815
0.763954 -3.301158 0.939674
0.763946 -3.320060 0.939664
0.763936 -3.338963 0.939651
0.763923 -3.357868 0.939635
0.736152 -3.376786 0.905477
0.736134 -3.395697 0.905455
0.736113 -3.414608 0.905429
0.708331 -3.433541 0.871256
0.708304 -3.452459 0.871223
0.708274 -3.471380 0.871187
0.680479 -3.490328 0.836999
0.652678 -3.509283 0.802803
0.652638 -3.528216 0.802754
0.652596 -3.547151 0.802701
0.010199 0.440967 0.011341
0.010298 0.421893 0.011451
0.039937 0.402759 0.044409
0.040027 0.383693 0.044508
0.040113 0.364630 0.044604
0.069729 0.345516 0.077536
0.099332 0.326412 0.110454
0.099404 0.307362 0.110534
0.128991 0.288271 0.143433
0.158566 0.269189 0.176320
0.158624 0.250152 0.176384
0.188183 0.231082 0.209253
0.188232 0.212052 0.209307
0.217777 0.192994 0.242160
0.247311 0.173944 0.275001
0.247348 0.154924 0.275042
0.247381 0.135906 0.275079
0.276898 0.116870 0.307900
0.306405 0.097841 0.340711
0.306427 0.078831 0.340736
0.335923 0.059811 0.373534
0.335938 0.040805 0.373551
0.335951 0.021801 0.373565
0.335962 0.002797 0.373577
0.335971 -0.016205 0.373587
0.335977 -0.035207 0.373594
0.335982 -0.054208 0.373599
0.335984 -0.073208 0.373602
0.394908 -0.092205 0.439123
0.394904 -0.111202 0.439119
0.424356 -0.130193 0.471869
0.424348 -0.149189 0.471859
0.453793 -0.168176 0.504601
0.424325 -0.187179 0.471834
0.424311 -0.206174 0.471819
0.424296 -0.225170 0.471802
0.424280 -0.244165 0.471784
0.424262 -0.263161 0.471764
0.394793 -0.282170 0.438996
0.394774 -0.301168 0.438974
0.424202 -0.320152 0.471697
0.424180 -0.339150 0.471672
0.394711 -0.358164 0.438904
0.394687 -0.377164 0.438878
0.394663 -0.396164 0.438851
0.394639 -0.415166 0.438824
0.394614 -0.434168 0.438796
0.453472 -0.453134 0.504244
0.482887 -0.472118 0.536953
0.482858 -0.491122 0.536920
0.482828 -0.510127 0.536887
0.453358 -0.529153 0.504117
0.453328 -0.548161 0.504084
0.453299 -0.567169 0.504051
0.453269 -0.586179 0.504018
0.453239 -0.605190 0.503985
0.453209 -0.624202 0.503952
0.453179 -0.643215 0.503919
0.453149 -0.662230 0.503885
0.453120 -0.681245 0.503853
0.453091 -0.700262 0.503820
0.423628 -0.719300 0.471058
0.423600 -0.738319 0.471027
0.423572 -0.757339 0.470996
0.423545 -0.776361 0.470966
0.423518 -0.795383 0.470937
0.452924 -0.814390 0.503634
0.452898 -0.833415 0.503605
0.423442 -0.852458 0.470851
0.423417 -0.871485 0.470824
0.423394 -0.890513 0.470798
0.423371 -0.909543 0.470773
0.423350 -0.928573 0.470749
0.423329 -0.947604 0.470726
0.423309 -0.966637 0.470704
0.423290 -0.985670 0.470683
0.423272 -1.004704 0.470663
0.452683 -1.023728 0.503367
0.452667 -1.042764 0.503349
0.482082 -1.061792 0.536057
0.482068 -1.080831 0.536042
0.482055 -1.099870 0.536028
0.482044 -1.118911 0.536015
0.482034 -1.137951 0.536003
0.511455 -1.156987 0.568719
0.511448 -1.176030 0.568711
0.540874 -1.195069 0.601432
0.540868 -1.214114 0.601426
0.511433 -1.233161 0.568694
0.511431 -1.252206 0.568692
0.540862 -1.271250 0.601418
0.540863 -1.290296 0.601419
0.540865 -1.309342 0.601421
0.540868 -1.328388 0.601426
0.540873 -1.347434 0.601431
0.540880 -1.366480 0.601439
0.511459 -1.385519 0.568723
0.511469 -1.404564 0.568734
0.540910 -1.423616 0.601472
0.540923 -1.442661 0.601486
0.540937 -1.461705 0.601502
0.540954 -1.480749 0.601520
0.570403 -1.499805 0.634267
0.599856 -1.518862 0.667018
0.599876 -1.537906 0.667040
0.629334 -1.556964 0.699796
0.629358 -1.576008 0.699823
0.658821 -1.595067 0.732585
0.658847 -1.614109 0.732614
0.658875 -1.633150 0.732644
0.688344 -1.652210 0.765413
0.688375 -1.671251 0.765447
0.688406 -1.690289 0.765482
0.688439 -1.709327 0.765518
0.688473 -1.728362 0.765556
0.717951 -1.747421 0.798335
0.806332 -1.766528 0.896612
0.865281 -1.785612 0.962160
0.924240 -1.804696 1.027721
0.924277 -1.823730 1.027762
0.983249 -1.842813 1.093336
1.012757 -1.861870 1.126148
1.130706 -1.880999 1.257303
1.130741 -1.900030 1.257343
1.130778 -1.919058 1.257383
1.130815 -1.938084 1.257425
1.130853 -1.957108 1.257466
1.130892 -1.976128 1.257510
1.130932 -1.995147 1.257554
1.130972 -2.014162 1.257599
1.131013 -2.033175 1.257645
1.131055 -2.052185 1.257692
1.131098 -2.071193 1.257739
1.131141 -2.090197 1.257787
1.101715 -2.109168 1.225067
1.101761 -2.128167 1.225117
1.101807 -2.147162 1.225169
1.101854 -2.166155 1.225221
1.101902 -2.185144 1.225274
1.101949 -2.204130 1.225327
1.101997 -2.223114 1.225380
1.102046 -2.242094 1.225434
1.102094 -2.261071 1.225488
1.102143 -2.280045 1.225543
1.102193 -2.299016 1.225598
1.102242 -2.317984 1.225653
1.102292 -2.336949 1.225708
1.102342 -2.355911 1.225763
1.072941 -2.374835 1.193070
1.072991 -2.393791 1.193127
1.073043 -2.412744 1.193184
1.073094 -2.431694 1.193241
1.073145 -2.450640 1.193297
1.073196 -2.469584 1.193354
1.073246 -2.488525 1.193410
1.073296 -2.507462 1.193465
1.043906 -2.526363 1.160785
1.043957 -2.545296 1.160842
1.044007 -2.564225 1.160898
1.044057 -2.583153 1.160953
1.044106 -2.602077 1.161008
1.014723 -2.620965 1.128334
1.014772 -2.639884 1.128389
1.044251 -2.658834 1.161169
1.044298 -2.677748 1.161220
1.044343 -2.696660 1.161271
1.014961 -2.715539 1.128599
1.015007 -2.734447 1.128650
1.015051 -2.753352 1.128699
1.015094 -2.772255 1.128747
1.015136 -2.791157 1.128794
1.015177 -2.810057 1.128839
1.015217 -2.828955 1.128884
0.985835 -2.847825 1.096212
0.985873 -2.866721 1.096255
0.985910 -2.885615 1.096296
0.985945 -2.904508 1.096335
0.956563 -2.923377 1.063662
0.956596 -2.942268 1.063699
0.956627 -2.961158 1.063734
0.956657 -2.980047 1.063767
0.956685 -2.998936 1.063798
0.927297 -3.017806 1.031120
0.927322 -3.036695 1.031148
0.927345 -3.055583 1.031174
0.927367 -3.074470 1.031197
0.927386 -3.093358 1.031219
0.897990 -3.112234 0.998532
0.898006 -3.131122 0.998549
0.898019 -3.150012 0.998564
0.898031 -3.168900 0.998577
0.868626 -3.187785 0.965880
0.868633 -3.206677 0.965888
0.868637 -3.225569 0.965893
0.839224 -3.244462 0.933186
0.839224 -3.263359 0.933186
0.839221 -3.282255 0.933182
0.839215 -3.301154 0.933176
0.809790 -3.320060 0.900456
0.809779 -3.338963 0.900444
0.809765 -3.357868 0.900429
0.780329 -3.376786 0.867697
0.780309 -3.395697 0.867675
0.780287 -3.414608 0.867650
0.750837 -3.433541 0.834903
0.750809 -3.452459 0.834872
0.721350 -3.471403 0.802114
0.721314 -3.490328 0.802075
0.721276 -3.509256 0.802032
0.691803 -3.528216 0.769259
0.691758 -3.547151 0.769209
0.010855 0.421893 0.010924
0.042099 0.402759 0.042365
0.042193 0.383693 0.042460
0.042284 0.364630 0.042551
0.042371 0.345570 0.042639
0.073584 0.326462 0.074049
0.104785 0.307362 0.105447
0.104857 0.288315 0.105519
0.136039 0.269229 0.136898
0.167210 0.250152 0.168266
0.198370 0.231082 0.199623
0.229519 0.212021 0.230968
0.229565 0.192994 0.231015
0.260699 0.173944 0.262345
0.260737 0.154924 0.262384
0.260772 0.135906 0.262419
0.291886 0.116870 0.293729
0.291914 0.097857 0.293757
0.323014 0.078831 0.325054
0.354107 0.059811 0.356343
0.354123 0.040805 0.356359
0.354137 0.021801 0.356373
0.354148 0.002797 0.356385
0.354157 -0.016205 0.356394
0.354164 -0.035207 0.356400
0.385229 -0.054210 0.387662
0.385230 -0.073209 0.387663
0.416285 -0.092205 0.418914
0.416281 -0.111202 0.418909
0.416274 -0.130199 0.418903
0.416266 -0.149195 0.418895
0.385204 -0.168198 0.387637
0.416245 -0.187187 0.418873
0.447280 -0.206174 0.450104
0.447263 -0.225170 0.450088
0.447246 -0.244165 0.450071
0.447228 -0.263161 0.450052
0.416164 -0.282170 0.418792
0.416144 -0.301168 0.418772
0.416122 -0.320166 0.418750
0.416100 -0.339165 0.418728
0.416077 -0.358164 0.418704
0.416052 -0.377164 0.418680
0.447065 -0.396148 0.449889
0.447038 -0.415148 0.449862
0.478048 -0.434132 0.481067
0.478019 -0.453134 0.481038
0.477989 -0.472138 0.481008
0.477959 -0.491142 0.480978
0.477929 -0.510147 0.480947
0.477898 -0.529153 0.480916
0.477867 -0.548161 0.480885
0.477836 -0.567169 0.480854
0.477805 -0.586179 0.480822
0.477773 -0.605190 0.480790
0.477741 -0.624202 0.480759
0.477710 -0.643215 0.480727
0.446650 -0.662249 0.449470
0.446619 -0.681265 0.449440
0.446589 -0.700282 0.449409
0.446559 -0.719300 0.449379
0.477556 -0.738300 0.480572
0.477527 -0.757321 0.480542
0.477497 -0.776342 0.480513
0.477469 -0.795365 0.480484
0.477441 -0.814390 0.480456
0.477413 -0.833415 0.480428
0.477387 -0.852441 0.480401
0.477361 -0.871469 0.480376
0.508361 -0.890482 0.511572
0.508337 -0.909512 0.511547
0.508313 -0.928544 0.511523
0.508290 -0.947576 0.511500
0.508269 -0.966610 0.511479
0.508248 -0.985644 0.511458
0.477205 -1.004692 0.480219
0.477187 -1.023728 0.480201
0.477170 -1.042764 0.480184
0.508177 -1.061792 0.511386
0.539187 -1.080822 0.542592
0.539173 -1.099862 0.542579
0.539161 -1.118903 0.542566
0.539150 -1.137945 0.542555
0.539141 -1.156987 0.542545
0.539133 -1.176030 0.542537
0.570152 -1.195069 0.573752
0.570146 -1.214114 0.573747
0.601170 -1.233157 0.604967
0.601168 -1.252203 0.604964
0.632197 -1.271250 0.636190
0.632198 -1.290298 0.636190
0.663233 -1.309347 0.667421
0.663236 -1.328396 0.667425
0.663241 -1.347445 0.667430
0.663247 -1.366494 0.667436
0.632222 -1.385537 0.636215
0.601203 -1.404578 0.605000
0.632244 -1.423632 0.636237
0.601228 -1.442670 0.605026
0.570218 -1.461705 0.573820
0.570236 -1.480749 0.573837
0.601279 -1.499805 0.605076
0.632326 -1.518862 0.636320
0.632348 -1.537906 0.636341
0.632371 -1.556949 0.636364
0.663425 -1.576008 0.667615
0.663451 -1.595050 0.667641
0.663478 -1.614091 0.667669
0.663508 -1.633132 0.667698
0.694570 -1.652191 0.698957
0.694602 -1.671230 0.698989
0.694636 -1.690267 0.699023
0.694670 -1.709304 0.699057
0.725740 -1.728362 0.730324
0.725778 -1.747396 0.730361
0.881029 -1.766552 0.886593
1.005295 -1.785683 1.011644
1.005332 -1.804720 1.011681
1.036434 -1.823779 1.042980
1.005409 -1.842788 1.011758
1.067578 -1.861870 1.074320
1.129758 -1.880951 1.136893
1.191949 -1.900030 1.199477
1.191987 -1.919058 1.199515
1.192027 -1.938084 1.199555
1.192066 -1.957108 1.199595
1.192107 -1.976128 1.199636
1.192150 -1.995147 1.199679
1.192192 -2.014162 1.199721
1.223308 -2.033203 1.231034
1.223351 -2.052213 1.231077
1.223395 -2.071221 1.231122
1.223440 -2.090226 1.231166
1.192417 -2.109199 1.199948
1.192464 -2.128197 1.199994
1.192511 -2.147193 1.200042
1.161498 -2.166155 1.168833
1.161548 -2.185144 1.168884
1.161598 -2.204130 1.168934
1.161648 -2.223114 1.168985
1.161700 -2.242094 1.169036
1.161751 -2.261071 1.169088
1.161803 -2.280045 1.169140
1.161855 -2.299016 1.169193
1.161907 -2.317984 1.169245
1.161960 -2.336949 1.169298
1.162012 -2.355911 1.169350
1.131019 -2.374835 1.138162
1.131073 -2.393791 1.138216
1.131127 -2.412744 1.138271
1.131181 -2.431694 1.138325
1.131234 -2.450640 1.138379
1.131288 -2.469584 1.138433
1.131341 -2.488525 1.138486
1.131394 -2.507462 1.138539
1.131447 -2.526397 1.138592
1.131499 -2.545329 1.138645
1.131551 -2.564259 1.138697
1.131602 -2.583185 1.138749
1.131653 -2.602109 1.138800
1.131704 -2.621031 1.138851
1.100727 -2.639917 1.107678
1.100777 -2.658834 1.107729
1.100826 -2.677748 1.107778
1.100874 -2.696660 1.107827
1.069901 -2.715539 1.076658
1.038931 -2.734416 1.045492
1.038978 -2.753322 1.045540
1.039025 -2.772227 1.045587
1.039070 -2.791129 1.045632
1.070129 -2.810057 1.076887
1.070171 -2.828955 1.076930
1.039199 -2.847825 1.045762
1.039239 -2.866721 1.045802
1.039278 -2.885615 1.045842
1.008305 -2.904484 1.014673
1.008342 -2.923377 1.014710
1.008376 -2.942268 1.014745
1.008410 -2.961158 1.014778
1.008441 -2.980047 1.014810
0.977464 -2.998917 0.983637
0.977492 -3.017806 0.983666
0.977518 -3.036695 0.983692
0.977543 -3.055583 0.983717
0.977566 -3.074470 0.983739
0.977586 -3.093358 0.983760
0.946599 -3.112234 0.952577
0.946615 -3.131122 0.952593
0.946629 -3.150012 0.952608
0.946641 -3.168900 0.952620
0.915645 -3.187785 0.921428
0.915652 -3.206677 0.921435
0.915657 -3.225569 0.921440
0.884652 -3.244462 0.890239
0.884651 -3.263359 0.890238
0.884648 -3.282255 0.890235
0.884642 -3.301154 0.890229
0.853624 -3.320060 0.859015
0.853613 -3.338963 0.859004
0.822586 -3.357878 0.827781
0.822568 -3.376786 0.827763
0.822548 -3.395697 0.827742
0.822524 -3.414608 0.827719
0.791481 -3.433541 0.796479
0.791450 -3.452459 0.796449
0.791417 -3.471380 0.796415
0.760360 -3.490328 0.765162
0.760319 -3.509256 0.765121
0.729250 -3.528216 0.733856
0.729203 -3.547151 0.733808
0.011450 0.421893 0.010298
0.011557 0.402821 0.010393
0.011659 0.383753 0.010485
0.044603 0.364630 0.040114
0.044695 0.345570 0.040197
0.077620 0.326462 0.069808
0.110531 0.307362 0.099407
0.143430 0.288271 0.128994
0.176316 0.269189 0.158571
0.176380 0.250152 0.158628
0.209248 0.231082 0.188189
0.242105 0.212021 0.217739
0.242154 0.192994 0.217783
0.274995 0.173944 0.247318
0.275036 0.154924 0.247355
0.275073 0.135906 0.247388
0.307893 0.116870 0.276905
0.340704 0.097841 0.306414
0.340728 0.078831 0.306436
0.373526 0.059811 0.335932
0.373543 0.040805 0.335948
0.373557 0.021801 0.335961
0.373569 0.002797 0.335971
0.373579 -0.016205 0.335980
0.373586 -0.035207 0.335986
0.406354 -0.054210 0.365457
0.406355 -0.073209 0.365458
0.439113 -0.092205 0.394919
0.406351 -0.111205 0.365454
0.406345 -0.130203 0.365449
0.406338 -0.149200 0.365443
0.406329 -0.168198 0.365434
0.439071 -0.187187 0.394881
0.439057 -0.206184 0.394868
0.439041 -0.225180 0.394854
0.439024 -0.244176 0.394839
0.439006 -0.263173 0.394822
0.438986 -0.282170 0.394804
0.438965 -0.301168 0.394785
0.438942 -0.320166 0.394765
0.438919 -0.339165 0.394744
0.438894 -0.358164 0.394722
0.471610 -0.377148 0.424145
0.471582 -0.396148 0.424120
0.471554 -0.415148 0.424094
0.471525 -0.434150 0.424068
0.471495 -0.453153 0.424041
0.504202 -0.472138 0.453457
0.504170 -0.491142 0.453428
0.536875 -0.510127 0.482842
0.569580 -0.529113 0.512255
0.569546 -0.548120 0.512224
0.569512 -0.567129 0.512194
0.569478 -0.586138 0.512163
0.569443 -0.605149 0.512132
0.536674 -0.624182 0.482661
0.536640 -0.643195 0.482631
0.536607 -0.662210 0.482600
0.503842 -0.681245 0.453133
0.503809 -0.700262 0.453103
0.503777 -0.719281 0.453075
0.471017 -0.738319 0.423612
0.470986 -0.757339 0.423584
0.470956 -0.776361 0.423557
0.503653 -0.795365 0.452963
0.503623 -0.814390 0.452936
0.503594 -0.833415 0.452910
0.503566 -0.852441 0.452885
0.503539 -0.871469 0.452861
0.503513 -0.890498 0.452837
0.503487 -0.909528 0.452814
0.503462 -0.928558 0.452792
0.503439 -0.947590 0.452770
0.503416 -0.966623 0.452750
0.503395 -0.985657 0.452731
0.536099 -1.004680 0.482144
0.568807 -1.023705 0.511559
0.568788 -1.042743 0.511543
0.568771 -1.061782 0.511528
0.568756 -1.080822 0.511514
0.568741 -1.099862 0.511501
0.568728 -1.118903 0.511489
0.568717 -1.137945 0.511478
0.601434 -1.156981 0.540903
0.601425 -1.176025 0.540895
0.634148 -1.195065 0.570325
0.634142 -1.214111 0.570319
0.634138 -1.233157 0.570315
0.634135 -1.252203 0.570313
0.634134 -1.271250 0.570312
0.634134 -1.290297 0.570312
0.634137 -1.309344 0.570314
0.634140 -1.328391 0.570317
0.634146 -1.347438 0.570322
0.634153 -1.366485 0.570329
0.634162 -1.385531 0.570337
0.634173 -1.404578 0.570347
0.634185 -1.423624 0.570358
0.666929 -1.442679 0.599807
0.666945 -1.461725 0.599821
0.699696 -1.480783 0.629275
0.699714 -1.499829 0.629292
0.667003 -1.518862 0.599872
0.634297 -1.537891 0.570458
0.667049 -1.556949 0.599914
0.699807 -1.576008 0.629375
0.732569 -1.595067 0.658840
0.732597 -1.614109 0.658865
0.732628 -1.633150 0.658893
0.732660 -1.652191 0.658922
0.732693 -1.671230 0.658952
0.765465 -1.690289 0.688425
0.765501 -1.709327 0.688458
0.798278 -1.728386 0.717935
0.798317 -1.747421 0.717971
0.929344 -1.766552 0.835810
1.027659 -1.785660 0.924231
1.027698 -1.804696 0.924266
1.060503 -1.823755 0.953770
1.093312 -1.842813 0.983276
1.093353 -1.861845 0.983313
1.191713 -1.880951 1.071774
1.257315 -1.900030 1.130773
1.290138 -1.919083 1.160293
1.322965 -1.938133 1.189816
1.323005 -1.957158 1.189852
1.323045 -1.976180 1.189888
1.323088 -1.995199 1.189926
1.323130 -2.014216 1.189964
1.323174 -2.033230 1.190004
1.323218 -2.052241 1.190043
1.290485 -2.071221 1.160605
1.290532 -2.090226 1.160647
1.290580 -2.109228 1.160690
1.257857 -2.128197 1.131261
1.257907 -2.147193 1.131306
1.225194 -2.166155 1.101885
1.258010 -2.185175 1.131398
1.258061 -2.204162 1.131444
1.290877 -2.223177 1.160957
1.290928 -2.242158 1.161003
1.290980 -2.261136 1.161050
1.291031 -2.280110 1.161096
1.258326 -2.299049 1.131682
1.225625 -2.317984 1.102273
1.225680 -2.336949 1.102322
1.225736 -2.355911 1.102372
1.225791 -2.374870 1.102422
1.225847 -2.393825 1.102472
1.225903 -2.412778 1.102522
1.225957 -2.431727 1.102571
1.226013 -2.450674 1.102621
1.226068 -2.469618 1.102671
1.193383 -2.488525 1.073276
1.193439 -2.507462 1.073326
1.193494 -2.526397 1.073376
1.193550 -2.545329 1.073425
1.193604 -2.564259 1.073475
1.160927 -2.583153 1.044086
1.160982 -2.602077 1.044135
1.161037 -2.620998 1.044185
1.161090 -2.639917 1.044232
1.128418 -2.658802 1.014849
1.128471 -2.677716 1.014896
1.128523 -2.696629 1.014943
1.128574 -2.715539 1.014989
1.128624 -2.734447 1.015035
1.128674 -2.753352 1.015079
1.128722 -2.772255 1.015122
1.161486 -2.791185 1.044589
1.161531 -2.810084 1.044629
1.161574 -2.828981 1.044668
1.161616 -2.847877 1.044705
1.128943 -2.866746 1.015321
1.128983 -2.885639 1.015357
1.129022 -2.904531 1.015392
1.129058 -2.923421 1.015425
1.129094 -2.942311 1.015457
1.129128 -2.961199 1.015487
1.096452 -2.980067 0.986100
1.096482 -2.998954 0.986127
1.096511 -3.017841 0.986153
1.063832 -3.036711 0.956763
1.063857 -3.055597 0.956785
1.063880 -3.074484 0.956807
1.063902 -3.093369 0.956826
1.063921 -3.112256 0.956843
1.031233 -3.131132 0.927445
1.031248 -3.150020 0.927458
0.998555 -3.168900 0.898055
0.998564 -3.187790 0.898064
0.998572 -3.206681 0.898071
0.998577 -3.225572 0.898076
0.965873 -3.244463 0.868663
0.965873 -3.263357 0.868663
0.965869 -3.282253 0.868660
0.933155 -3.301154 0.839238
0.933146 -3.320054 0.839230
0.933135 -3.338955 0.839220
0.900409 -3.357868 0.809788
0.900391 -3.376774 0.809771
0.900370 -3.395682 0.809752
0.867630 -3.414608 0.780308
0.867602 -3.433523 0.780283
0.834853 -3.452459 0.750830
0.834818 -3.471380 0.750798
0.802057 -3.490328 0.721334
0.802014 -3.509256 0.721296
0.769242 -3.528216 0.691822
0.769192 -3.547151 0.691777
0.011888 0.421893 0.009790
0.011998 0.402821 0.009880
0.012104 0.383753 0.009968
0.046307 0.364630 0.038134
0.080496 0.345516 0.066289
0.080585 0.326462 0.066362
0.114754 0.307362 0.094501
0.148909 0.288271 0.122628
0.183052 0.269189 0.150745
0.217182 0.250115 0.178852
0.251301 0.231049 0.206949
0.251355 0.212021 0.206993
0.251405 0.192994 0.207035
0.285501 0.173944 0.235113
0.319586 0.154901 0.263182
0.319622 0.135885 0.263212
0.319655 0.116870 0.263239
0.353720 0.097841 0.291292
0.353745 0.078831 0.291313
0.387795 0.059811 0.319353
0.387813 0.040805 0.319368
0.387828 0.021801 0.319380
0.387841 0.002797 0.319391
0.387850 -0.016205 0.319399
0.421875 -0.035210 0.347418
0.421878 -0.054210 0.347421
0.421879 -0.073209 0.347422
0.421878 -0.092207 0.347421
0.421875 -0.111205 0.347418
0.421869 -0.130203 0.347413
0.421862 -0.149200 0.347407
0.421852 -0.168198 0.347399
0.421841 -0.187195 0.347390
0.455830 -0.206184 0.375381
0.455814 -0.225180 0.375367
0.455796 -0.244176 0.375353
0.455777 -0.263173 0.375337
0.455756 -0.282170 0.375320
0.455734 -0.301168 0.375302
0.455711 -0.320166 0.375283
0.455687 -0.339165 0.375263
0.489654 -0.358148 0.403235
0.489627 -0.377148 0.403212
0.489598 -0.396148 0.403189
0.489568 -0.415148 0.403164
0.489538 -0.434150 0.403140
0.523496 -0.453134 0.431104
0.523464 -0.472138 0.431078
0.523431 -0.491142 0.431051
0.557386 -0.510127 0.459013
0.591340 -0.529113 0.486974
0.591304 -0.548120 0.486945
0.591269 -0.567129 0.486916
0.557247 -0.586159 0.458898
0.557211 -0.605170 0.458869
0.557177 -0.624182 0.458841
0.523158 -0.643215 0.430826
0.523124 -0.662230 0.430798
0.523090 -0.681245 0.430770
0.523056 -0.700262 0.430742
0.523023 -0.719281 0.430715
0.522989 -0.738300 0.430687
0.522957 -0.757321 0.430661
0.522925 -0.776342 0.430634
0.522894 -0.795365 0.430608
0.522863 -0.814390 0.430583
0.522833 -0.833415 0.430558
0.488828 -0.852458 0.402555
0.488800 -0.871485 0.402532
0.522748 -0.890498 0.430488
0.522722 -0.909528 0.430467
0.522696 -0.928558 0.430445
0.522672 -0.947590 0.430425
0.522648 -0.966623 0.430406
0.522626 -0.985657 0.430388
0.522605 -1.004692 0.430371
0.522585 -1.023728 0.430354
0.556541 -1.042753 0.458317
0.556524 -1.061792 0.458303
0.556508 -1.080831 0.458290
0.590469 -1.099862 0.486257
0.590455 -1.118903 0.486246
0.590443 -1.137945 0.486236
0.590433 -1.156987 0.486227
0.624401 -1.176025 0.514201
0.624394 -1.195069 0.514195
0.624388 -1.214114 0.514190
0.658364 -1.233157 0.542169
0.658361 -1.252203 0.542167
0.658359 -1.271250 0.542166
0.658360 -1.290297 0.542166
0.658363 -1.309344 0.542168
0.658366 -1.328391 0.542171
0.624394 -1.347434 0.514194
0.624401 -1.366480 0.514201
0.624411 -1.385525 0.514209
0.658400 -1.404578 0.542199
0.658413 -1.423624 0.542210
0.658428 -1.442670 0.542222
0.692424 -1.461725 0.570219
0.692442 -1.480772 0.570233
0.692462 -1.499817 0.570250
0.726467 -1.518875 0.598253
0.726490 -1.537920 0.598272
0.760500 -1.556979 0.626280
0.760527 -1.576023 0.626302
0.760555 -1.595067 0.626325
0.760585 -1.614109 0.626349
0.760616 -1.633150 0.626375
0.760650 -1.652191 0.626403
0.760684 -1.671230 0.626431
0.794708 -1.690289 0.654450
0.794746 -1.709327 0.654481
0.862767 -1.728409 0.710498
0.862807 -1.747445 0.710531
0.998854 -1.766576 0.822567
1.100936 -1.785683 0.906632
1.134997 -1.804744 0.934681
1.135038 -1.823779 0.934715
1.135080 -1.842813 0.934750
1.135123 -1.861845 0.934785
1.271272 -1.880975 1.046905
1.339385 -1.900054 1.102997
1.373465 -1.919106 1.131063
1.373506 -1.938133 1.131096
1.373547 -1.957158 1.131130
1.373590 -1.976180 1.131165
1.373633 -1.995199 1.131201
1.339644 -2.014189 1.103210
1.339690 -2.033203 1.103249
1.339738 -2.052213 1.103288
1.305759 -2.071193 1.075306
1.305809 -2.090197 1.075347
1.271839 -2.109168 1.047373
1.271892 -2.128167 1.047416
1.271945 -2.147162 1.047460
1.272000 -2.166155 1.047505
1.306069 -2.185175 1.075562
1.306123 -2.204162 1.075606
1.306177 -2.223146 1.075650
1.306232 -2.242126 1.075695
1.306287 -2.261104 1.075741
1.306342 -2.280078 1.075786
1.306398 -2.299049 1.075832
1.306453 -2.318017 1.075878
1.306509 -2.336982 1.075923
1.306565 -2.355944 1.075970
1.272620 -2.374870 1.048016
1.272678 -2.393825 1.048063
1.272736 -2.412778 1.048111
1.272793 -2.431727 1.048158
1.272850 -2.450674 1.048205
1.238916 -2.469584 1.020260
1.238974 -2.488525 1.020308
1.239032 -2.507462 1.020355
1.239089 -2.526397 1.020403
1.205163 -2.545296 0.992464
1.205220 -2.564225 0.992511
1.205278 -2.583153 0.992559
1.205335 -2.602077 0.992606
1.205392 -2.620998 0.992652
1.205447 -2.639917 0.992698
1.205502 -2.658834 0.992743
1.205556 -2.677748 0.992787
1.205608 -2.696660 0.992831
1.205660 -2.715569 0.992874
1.205711 -2.734476 0.992916
1.205761 -2.753381 0.992957
1.205810 -2.772284 0.992997
1.205858 -2.791185 0.993037
1.171938 -2.810057 0.965103
1.171984 -2.828955 0.965141
1.172029 -2.847852 0.965178
1.172072 -2.866746 0.965213
1.172114 -2.885639 0.965248
1.172154 -2.904531 0.965281
1.172192 -2.923421 0.965312
1.172229 -2.942311 0.965342
1.172264 -2.961199 0.965371
1.172297 -2.980086 0.965399
1.138371 -2.998954 0.937460
1.138401 -3.017841 0.937485
1.138429 -3.036726 0.937508
1.104499 -3.055597 0.909566
1.104524 -3.074484 0.909587
1.104546 -3.093369 0.909605
1.104566 -3.112256 0.909621
1.104583 -3.131142 0.909635
1.070644 -3.150020 0.881687
1.070657 -3.168908 0.881697
1.036713 -3.187790 0.853743
1.036720 -3.206681 0.853750
1.036726 -3.225572 0.853754
1.002772 -3.244463 0.825793
1.002772 -3.263357 0.825793
1.002769 -3.282253 0.825790
1.002763 -3.301149 0.825785
0.968795 -3.320054 0.797813
0.968783 -3.338955 0.797803
0.934807 -3.357868 0.769823
0.934788 -3.376774 0.769808
0.934766 -3.395682 0.769790
0.900777 -3.414608 0.741799
0.900747 -3.433523 0.741775
0.900715 -3.452440 0.741748
0.866710 -3.471380 0.713745
0.832698 -3.490328 0.685735
0.832654 -3.509256 0.685699
0.798629 -3.528216 0.657679
0.798577 -3.547151 0.657636
-0.165754 0.517706 -0.123179
-0.165604 0.498606 -0.123067
-0.165458 0.479510 -0.122958
-0.129818 0.460339 -0.096473
-0.129683 0.441252 -0.096372
-0.094066 0.422097 -0.069904
-0.022992 0.402885 -0.017087
0.012586 0.383753 0.009353
0.083601 0.364574 0.062127
0.083697 0.345516 0.062199
0.154669 0.326363 0.114941
0.190182 0.307271 0.141332
0.225683 0.288188 0.167714
0.261171 0.269113 0.194086
0.296646 0.250046 0.220449
0.332110 0.230986 0.246804
0.332161 0.211962 0.246842
0.367607 0.192914 0.273184
0.367649 0.173896 0.273215
0.403080 0.154859 0.299545
0.438501 0.135829 0.325868
0.473912 0.116805 0.352183
0.473936 0.097799 0.352201
0.509333 0.078784 0.378506
0.509349 0.059782 0.378518
0.509362 0.040781 0.378527
0.509372 0.021781 0.378535
0.509380 0.002782 0.378541
0.509385 -0.016216 0.378545
0.509388 -0.035214 0.378547
0.509388 -0.054210 0.378547
0.509386 -0.073207 0.378545
0.509381 -0.092203 0.378542
0.509374 -0.111198 0.378537
0.509366 -0.130193 0.378530
0.509355 -0.149189 0.378522
0.509343 -0.168184 0.378513
0.509328 -0.187179 0.378502
0.544666 -0.206164 0.404763
0.544646 -0.225159 0.404748
0.544626 -0.244153 0.404733
0.544603 -0.263149 0.404716
0.544579 -0.282144 0.404699
0.544554 -0.301140 0.404680
0.544528 -0.320137 0.404660
0.544500 -0.339134 0.404640
0.579817 -0.358116 0.430885
0.579787 -0.377114 0.430863
0.579755 -0.396113 0.430839
0.615067 -0.415094 0.457081
0.615033 -0.434095 0.457056
0.614998 -0.453096 0.457030
0.614963 -0.472099 0.457004
0.614928 -0.491102 0.456978
0.614892 -0.510107 0.456951
0.614855 -0.529113 0.456924
0.614819 -0.548120 0.456896
0.614782 -0.567129 0.456869
0.614745 -0.586138 0.456842
0.614708 -0.605149 0.456814
0.614671 -0.624161 0.456787
0.614634 -0.643175 0.456759
0.614597 -0.662189 0.456732
0.649898 -0.681185 0.482966
0.649862 -0.700202 0.482939
0.685165 -0.719201 0.509173
0.685128 -0.738221 0.509146
0.649755 -0.757263 0.482859
0.649720 -0.776286 0.482833
0.649686 -0.795310 0.482808
0.649653 -0.814335 0.482783
0.649621 -0.833362 0.482759
0.649589 -0.852390 0.482736
0.649559 -0.871419 0.482713
0.649529 -0.890449 0.482691
0.649500 -0.909481 0.482670
0.649473 -0.928514 0.482649
0.649446 -0.947547 0.482629
0.649421 -0.966582 0.482611
0.614065 -0.985632 0.456336
0.614042 -1.004668 0.456319
0.614021 -1.023705 0.456303
0.614001 -1.042743 0.456289
0.649313 -1.061772 0.482531
0.649296 -1.080812 0.482518
0.649280 -1.099854 0.482506
0.649265 -1.118896 0.482495
0.649253 -1.137938 0.482486
0.649242 -1.156981 0.482477
0.684564 -1.176020 0.508727
0.684556 -1.195065 0.508721
0.719885 -1.214108 0.534976
0.755219 -1.233152 0.561233
0.755215 -1.252201 0.561230
0.790555 -1.271249 0.587493
0.755213 -1.290298 0.561229
0.790556 -1.309349 0.587494
0.755219 -1.328396 0.561233
0.755224 -1.347445 0.561237
0.790572 -1.366499 0.587506
0.755240 -1.385543 0.561249
0.755251 -1.404592 0.561257
0.755264 -1.423640 0.561267
0.719943 -1.442679 0.535019
0.719960 -1.461725 0.535031
0.719979 -1.480772 0.535045
0.719999 -1.499817 0.535060
0.720022 -1.518862 0.535077
0.755380 -1.537920 0.561353
0.720072 -1.556949 0.535115
0.755434 -1.576008 0.561393
0.755463 -1.595050 0.561415
0.755494 -1.614091 0.561438
0.755528 -1.633132 0.561463
0.755563 -1.652171 0.561489
0.755600 -1.671209 0.561517
0.790973 -1.690267 0.587804
0.791012 -1.709304 0.587833
0.826391 -1.728362 0.614125
0.826434 -1.747396 0.614156
0.897162 -1.766479 0.666717
1.003260 -1.785588 0.745562
1.250891 -1.804789 0.929587
1.215551 -1.823803 0.903325
1.250973 -1.842862 0.929648
1.286398 -1.861919 0.955974
1.357215 -1.880999 1.008601
1.463440 -1.900100 1.087541
1.463480 -1.919130 1.087571
1.463521 -1.938157 1.087601
1.428169 -1.957158 1.061330
1.392824 -1.976154 1.035063
1.392871 -1.995173 1.035098
1.392917 -2.014189 1.035133
1.392966 -2.033203 1.035169
1.357634 -2.052185 1.008912
1.357685 -2.071193 1.008950
1.357737 -2.090197 1.008989
1.357790 -2.109199 1.009028
1.357843 -2.128197 1.009068
1.322527 -2.147162 0.982823
1.322583 -2.166155 0.982865
1.322640 -2.185144 0.982907
1.322697 -2.204130 0.982949
1.322754 -2.223114 0.982992
1.322813 -2.242094 0.983035
1.322871 -2.261071 0.983079
1.358291 -2.280078 1.009401
1.358349 -2.299049 1.009444
1.358407 -2.318017 1.009487
1.358464 -2.336982 1.009530
1.358523 -2.355944 1.009573
1.358581 -2.374903 1.009616
1.358640 -2.393858 1.009660
1.358698 -2.412811 1.009703
1.323408 -2.431727 0.983477
1.323467 -2.450674 0.983522
1.323527 -2.469618 0.983566
1.323586 -2.488558 0.983610
1.323645 -2.507496 0.983653
1.323703 -2.526431 0.983697
1.323762 -2.545363 0.983740
1.288483 -2.564259 0.957523
1.288541 -2.583185 0.957567
1.288599 -2.602109 0.957610
1.323988 -2.621062 0.983909
1.324043 -2.639980 0.983950
1.288768 -2.658865 0.957736
1.288823 -2.677779 0.957776
1.288877 -2.696690 0.957816
1.288930 -2.715599 0.957855
1.288982 -2.734505 0.957894
1.289032 -2.753410 0.957932
1.289081 -2.772312 0.957968
1.289130 -2.791212 0.958004
1.289177 -2.810111 0.958039
1.289223 -2.829007 0.958073
1.289267 -2.847902 0.958106
1.253995 -2.866771 0.931894
1.254037 -2.885663 0.931926
1.218767 -2.904531 0.905715
1.218806 -2.923421 0.905744
1.218845 -2.942311 0.905772
1.218881 -2.961199 0.905799
1.218916 -2.980086 0.905825
1.183641 -2.998954 0.879611
1.183672 -3.017841 0.879634
1.183701 -3.036726 0.879656
1.183728 -3.055612 0.879676
1.183753 -3.074497 0.879694
1.183775 -3.093382 0.879711
1.148491 -3.112256 0.853490
1.148509 -3.131142 0.853503
1.148525 -3.150028 0.853515
1.113233 -3.168908 0.827288
1.113244 -3.187796 0.827296
1.077947 -3.206681 0.801066
1.077953 -3.225572 0.801070
1.077956 -3.244463 0.801072
1.042650 -3.263357 0.774835
1.042645 -3.282253 0.774832
1.007331 -3.301154 0.748588
1.007321 -3.320054 0.748581
1.007309 -3.338955 0.748572
1.007293 -3.357858 0.748560
1.007274 -3.376762 0.748546
0.971939 -3.395682 0.722287
0.936598 -3.414608 0.696023
0.936567 -3.433523 0.696001
0.936534 -3.452440 0.695976
0.901177 -3.471380 0.669701
0.901136 -3.490304 0.669670
0.865766 -3.509256 0.643385
0.865717 -3.528187 0.643349
0.830334 -3.547151 0.617054
-0.171682 0.517706 -0.114772
-0.171526 0.498606 -0.114668
-0.171375 0.479510 -0.114567
-0.171228 0.460417 -0.114468
-0.134321 0.441252 -0.089795
-0.134185 0.422168 -0.089704
-0.023815 0.402885 -0.015920
0.013036 0.383753 0.008715
0.049870 0.364630 0.033339
0.086690 0.345516 0.057954
0.123495 0.326412 0.082558
0.196984 0.307271 0.131687
0.233755 0.288188 0.156268
0.270511 0.269113 0.180840
0.307255 0.250046 0.205404
0.307315 0.231017 0.205444
0.344041 0.211962 0.229996
0.380755 0.192914 0.254540
0.380798 0.173896 0.254569
0.417497 0.154859 0.279102
0.454184 0.135829 0.303628
0.490862 0.116805 0.328147
0.527530 0.097787 0.352661
0.527549 0.078784 0.352674
0.527566 0.059782 0.352684
0.527579 0.040781 0.352693
0.527590 0.021781 0.352701
0.527598 0.002782 0.352706
0.527603 -0.016216 0.352710
0.527606 -0.035214 0.352711
0.527606 -0.054210 0.352711
0.527604 -0.073207 0.352710
0.527599 -0.092203 0.352707
0.527592 -0.111198 0.352702
0.527583 -0.130193 0.352696
0.527572 -0.149189 0.352689
0.527559 -0.168184 0.352680
0.527544 -0.187179 0.352670
0.527527 -0.206174 0.352659
0.564125 -0.225159 0.377125
0.600720 -0.244141 0.401589
0.637311 -0.263121 0.426050
0.637284 -0.282116 0.426033
0.637256 -0.301110 0.426014
0.637227 -0.320105 0.425995
0.637196 -0.339102 0.425974
0.637165 -0.358098 0.425953
0.637132 -0.377096 0.425931
0.637099 -0.396095 0.425909
0.637065 -0.415094 0.425886
0.637029 -0.434095 0.425862
0.636993 -0.453096 0.425838
0.636957 -0.472099 0.425814
0.636921 -0.491102 0.425790
0.636883 -0.510107 0.425765
0.636846 -0.529113 0.425739
0.636807 -0.548120 0.425714
0.636769 -0.567129 0.425689
0.673335 -0.586117 0.450133
0.673296 -0.605128 0.450107
0.673257 -0.624140 0.450081
0.709823 -0.643133 0.474526
0.673180 -0.662169 0.450030
0.673142 -0.681185 0.450004
0.673104 -0.700202 0.449979
0.673067 -0.719221 0.449954
0.709632 -0.738221 0.474398
0.709596 -0.757243 0.474374
0.746164 -0.776247 0.498820
0.746128 -0.795272 0.498796
0.746093 -0.814298 0.498773
0.746059 -0.833326 0.498750
0.746026 -0.852355 0.498728
0.672790 -0.871419 0.449769
0.672759 -0.890449 0.449748
0.672729 -0.909481 0.449728
0.672701 -0.928514 0.449709
0.672673 -0.947547 0.449691
0.672647 -0.966582 0.449673
0.672622 -0.985618 0.449656
0.672598 -1.004655 0.449641
0.672576 -1.023693 0.449626
0.709153 -1.042721 0.474078
0.709133 -1.061762 0.474065
0.709115 -1.080803 0.474052
0.709099 -1.099845 0.474042
0.709083 -1.118888 0.474031
0.709070 -1.137931 0.474022
0.709058 -1.156976 0.474014
0.709047 -1.176020 0.474007
0.709039 -1.195065 0.474002
0.709032 -1.214111 0.473997
0.709027 -1.233157 0.473994
0.672430 -1.252205 0.449528
0.672429 -1.271250 0.449527
0.709024 -1.290297 0.473991
0.709026 -1.309344 0.473993
0.745628 -1.328394 0.498462
0.745633 -1.347442 0.498466
0.745641 -1.366489 0.498471
0.745651 -1.385537 0.498477
0.745663 -1.404585 0.498485
0.709081 -1.423624 0.474030
0.709096 -1.442670 0.474040
0.709114 -1.461715 0.474052
0.745729 -1.480772 0.498529
0.745750 -1.499817 0.498544
0.782371 -1.518875 0.523025
0.818997 -1.537934 0.547510
0.819024 -1.556979 0.547528
0.819052 -1.576023 0.547547
0.819083 -1.595067 0.547567
0.819115 -1.614109 0.547589
0.819149 -1.633150 0.547612
0.819185 -1.652191 0.547635
0.855825 -1.671251 0.572130
0.855863 -1.690289 0.572156
0.892510 -1.709349 0.596654
0.892552 -1.728386 0.596682
0.929204 -1.747445 0.621185
1.002476 -1.766528 0.670168
1.075764 -1.785612 0.719162
1.149066 -1.804696 0.768166
1.259025 -1.823803 0.841675
1.295714 -1.842862 0.866202
1.295758 -1.861895 0.866231
1.369101 -1.880975 0.915262
1.479116 -1.900077 0.988808
1.479159 -1.919106 0.988837
1.479203 -1.938133 0.988866
1.442591 -1.957133 0.964391
1.442638 -1.976154 0.964422
1.442686 -1.995173 0.964455
1.406086 -2.014162 0.939987
1.406137 -2.033175 0.940021
1.369546 -2.052156 0.915560
1.406242 -2.071193 0.940091
1.406297 -2.090197 0.940127
1.406351 -2.109199 0.940164
1.369769 -2.128167 0.915708
1.369827 -2.147162 0.915747
1.369885 -2.166155 0.915786
1.369944 -2.185144 0.915825
1.370003 -2.204130 0.915865
1.370062 -2.223114 0.915904
1.370123 -2.242094 0.915945
1.370183 -2.261071 0.915985
1.370245 -2.280045 0.916026
1.370306 -2.299016 0.916068
1.370368 -2.317984 0.916108
1.370429 -2.336949 0.916150
1.370491 -2.355911 0.916191
1.370553 -2.374870 0.916233
1.370615 -2.393825 0.916274
1.370678 -2.412778 0.916316
1.370739 -2.431727 0.916357
1.370801 -2.450674 0.916398
1.370862 -2.469618 0.916439
1.370924 -2.488558 0.916480
1.370985 -2.507496 0.916521
1.371045 -2.526431 0.916561
1.371106 -2.545363 0.916602
1.334565 -2.564259 0.892174
1.334626 -2.583185 0.892215
1.334685 -2.602109 0.892254
1.334745 -2.621031 0.892294
1.334803 -2.639949 0.892333
1.334861 -2.658865 0.892372
1.334918 -2.677779 0.892410
1.298385 -2.696660 0.867987
1.298441 -2.715569 0.868024
1.298496 -2.734476 0.868061
1.298550 -2.753381 0.868097
1.298602 -2.772284 0.868132
1.298654 -2.791185 0.868167
1.298704 -2.810084 0.868200
1.298752 -2.828981 0.868233
1.298799 -2.847877 0.868264
1.298844 -2.866771 0.868294
1.298888 -2.885663 0.868323
1.298931 -2.904554 0.868352
1.298971 -2.923443 0.868379
1.262437 -2.942311 0.843955
1.262474 -2.961199 0.843980
1.262510 -2.980086 0.844004
1.262544 -2.998972 0.844027
1.262576 -3.017858 0.844048
1.262605 -3.036742 0.844068
1.226063 -3.055612 0.819639
1.226089 -3.074497 0.819657
1.226113 -3.093382 0.819672
1.189567 -3.112256 0.795241
1.189585 -3.131142 0.795253
1.189601 -3.150028 0.795264
1.153048 -3.168908 0.770828
1.153059 -3.187796 0.770835
1.116500 -3.206681 0.746395
1.116506 -3.225572 0.746399
1.079940 -3.244463 0.721954
1.079940 -3.263357 0.721954
1.079936 -3.282253 0.721951
1.079929 -3.301149 0.721947
1.043348 -3.320054 0.697492
1.043335 -3.338955 0.697483
1.043319 -3.357858 0.697472
1.006724 -3.376774 0.673008
1.006700 -3.395682 0.672992
0.970095 -3.414608 0.648521
0.970064 -3.433523 0.648500
0.970029 -3.452440 0.648477
0.969991 -3.471359 0.648451
0.933365 -3.490304 0.623966
0.896730 -3.509256 0.599475
0.896679 -3.528187 0.599441
0.860031 -3.547151 0.574942
-0.215662 0.575120 -0.129117
-0.215486 0.556007 -0.129011
-0.215314 0.536898 -0.128908
-0.215146 0.517793 -0.128808
-0.177024 0.498606 -0.105984
-0.176868 0.479510 -0.105891
-0.176715 0.460417 -0.105800
-0.138626 0.441252 -0.082995
-0.100553 0.422097 -0.060201
0.013335 0.402821 0.007984
0.051358 0.383693 0.030748
0.089366 0.364574 0.053503
0.127358 0.345464 0.076249
0.127453 0.326412 0.076306
0.241167 0.307228 0.144387
0.316969 0.288110 0.189769
0.317038 0.269077 0.189810
0.354953 0.250013 0.212511
0.392856 0.230957 0.235203
0.392909 0.211935 0.235235
0.430795 0.192890 0.257917
0.468669 0.173853 0.280592
0.506534 0.154822 0.303262
0.506565 0.135813 0.303280
0.544414 0.116792 0.325941
0.620070 0.097767 0.371236
0.620086 0.078767 0.371245
0.657910 0.059762 0.393891
0.657919 0.040765 0.393896
0.695732 0.021768 0.416535
0.695733 0.002775 0.416536
0.695733 -0.016218 0.416535
0.733531 -0.035208 0.439165
0.695724 -0.054202 0.416530
0.695716 -0.073193 0.416525
0.733504 -0.092178 0.439149
0.695693 -0.111175 0.416512
0.695678 -0.130166 0.416503
0.695662 -0.149157 0.416493
0.695644 -0.168148 0.416482
0.695624 -0.187139 0.416470
0.695601 -0.206130 0.416456
0.695577 -0.225122 0.416442
0.733342 -0.244100 0.439052
0.733314 -0.263092 0.439035
0.733285 -0.282085 0.439018
0.733254 -0.301078 0.438999
0.771010 -0.320055 0.461604
0.770977 -0.339049 0.461584
0.770942 -0.358045 0.461563
0.770906 -0.377041 0.461542
0.770870 -0.396038 0.461520
0.770833 -0.415036 0.461498
0.770795 -0.434035 0.461475
0.770756 -0.453036 0.461452
0.770717 -0.472037 0.461428
0.770676 -0.491040 0.461404
0.770637 -0.510045 0.461380
0.770596 -0.529050 0.461356
0.770556 -0.548057 0.461332
0.732734 -0.567086 0.438688
0.770474 -0.586075 0.461283
0.770433 -0.605085 0.461258
0.770392 -0.624098 0.461234
0.808134 -0.643090 0.483830
0.808093 -0.662105 0.483805
0.808053 -0.681122 0.483781
0.845796 -0.700119 0.506378
0.845757 -0.719139 0.506355
0.845718 -0.738160 0.506331
0.845679 -0.757183 0.506308
0.845641 -0.776207 0.506285
0.807821 -0.795252 0.483642
0.807785 -0.814279 0.483621
0.769969 -0.833326 0.460980
0.769935 -0.852355 0.460960
0.769901 -0.871385 0.460940
0.769869 -0.890416 0.460921
0.769838 -0.909449 0.460902
0.769808 -0.928483 0.460884
0.769779 -0.947518 0.460867
0.769752 -0.966554 0.460850
0.769725 -0.985592 0.460834
0.731925 -1.004643 0.438204
0.731902 -1.023681 0.438190
0.731880 -1.042721 0.438177
0.731860 -1.061762 0.438165
