-0.062733 -3.149501 -1.474109
-0.062735 -3.169011 -1.474147
-0.062736 -3.188521 -1.474183
-0.064608 -3.208045 -1.518164
-0.062739 -3.227540 -1.474244
-0.062740 -3.247050 -1.474272
-0.062741 -3.266559 -1.474294
-0.060871 -3.286060 -1.430366
-0.060872 -3.305572 -1.430383
-0.059002 -3.325079 -1.386446
-0.059003 -3.344594 -1.386456
-0.059003 -3.364109 -1.386462
-0.059003 -3.383625 -1.386464
-0.074235 0.717323 -0.804644
-0.074250 0.697593 -0.804813
-0.078323 0.677793 -0.848954
-0.082393 0.658003 -0.893078
-0.082407 0.638291 -0.893227
-0.086476 0.618518 -0.937328
-0.086489 0.598817 -0.937465
-0.086501 0.579121 -0.937597
-0.086512 0.559428 -0.937724
-0.090578 0.539685 -0.981788
-0.090588 0.520003 -0.981903
-0.090599 0.500324 -0.982014
-0.090608 0.480650 -0.982120
-0.090618 0.460980 -0.982221
-0.090627 0.441313 -0.982318
-0.086583 0.421692 -0.938484
-0.086591 0.402029 -0.938574
-0.086599 0.382370 -0.938660
-0.086606 0.362715 -0.938742
-0.086613 0.343062 -0.938818
-0.086620 0.323412 -0.938891
-0.086626 0.303765 -0.938958
-0.086632 0.284121 -0.939022
-0.086638 0.264479 -0.939081
-0.086643 0.244839 -0.939137
-0.086647 0.225202 -0.939188
-0.082602 0.205589 -0.895334
-0.082606 0.185955 -0.895378
-0.082610 0.166322 -0.895420
-0.082613 0.146691 -0.895457
-0.078566 0.127078 -0.851596
-0.078569 0.107449 -0.851627
-0.078572 0.087821 -0.851655
-0.078574 0.068195 -0.851680
-0.074527 0.048580 -0.807812
-0.074529 0.028955 -0.807832
-0.074530 0.009331 -0.807848
-0.074532 -0.010292 -0.807861
-0.078581 -0.029917 -0.851751
-0.078581 -0.049536 -0.851755
-0.074533 -0.069155 -0.807880
-0.074533 -0.088775 -0.807880
-0.070485 -0.108395 -0.764004
-0.070485 -0.128015 -0.764000
-0.066437 -0.147638 -0.720122
-0.062389 -0.167262 -0.676245
-0.062388 -0.186884 -0.676237
-0.062387 -0.206505 -0.676226
-0.062386 -0.226126 -0.676214
-0.062385 -0.245747 -0.676199
-0.062383 -0.265369 -0.676182
-0.062381 -0.284990 -0.676162
-0.058333 -0.304621 -0.632282
-0.058331 -0.324244 -0.632261
-0.058329 -0.343867 -0.632237
-0.058327 -0.363490 -0.632212
-0.062370 -0.383101 -0.676037
-0.066412 -0.402709 -0.719856
-0.066409 -0.422333 -0.719823
-0.066406 -0.441957 -0.719789
-0.066403 -0.461582 -0.719753
-0.054265 -0.481256 -0.588187
-0.054262 -0.500884 -0.588154
-0.054259 -0.520512 -0.588120
-0.054256 -0.540142 -0.588085
-0.058297 -0.559755 -0.631887
-0.058293 -0.579385 -0.631849
-0.062334 -0.598999 -0.675646
-0.062330 -0.618631 -0.675606
-0.054239 -0.638301 -0.587902
-0.042105 -0.657986 -0.456379
-0.042101 -0.677621 -0.456345
-0.042098 -0.697258 -0.456312
-0.042095 -0.716895 -0.456277
-0.042092 -0.736534 -0.456244
-0.042089 -0.756173 -0.456210
-0.042086 -0.775813 -0.456177
-0.042083 -0.795454 -0.456144
-0.042080 -0.815096 -0.456111
-0.042077 -0.834739 -0.456079
-0.042074 -0.854382 -0.456047
-0.042071 -0.874027 -0.456016
-0.042068 -0.893672 -0.455986
-0.042066 -0.913319 -0.455956
-0.042063 -0.932966 -0.455928
-0.038019 -0.952626 -0.412093
-0.038017 -0.972274 -0.412068
-0.038014 -0.991923 -0.412044
-0.038012 -1.011573 -0.412021
-0.038010 -1.031223 -0.411999
-0.038008 -1.050874 -0.411978
-0.033966 -1.070535 -0.368160
-0.033964 -1.090186 -0.368144
-0.033963 -1.109839 -0.368128
-0.033962 -1.129492 -0.368115
-0.029920 -1.149150 -0.324309
-0.029919 -1.168803 -0.324300
-0.029919 -1.188456 -0.324293
-0.029918 -1.208110 -0.324286
-0.025878 -1.227766 -0.280494
-0.025878 -1.247419 -0.280493
-0.025878 -1.267073 -0.280493
-0.025878 -1.286726 -0.280495
-0.021839 -1.306378 -0.236715
-0.021839 -1.326031 -0.236722
-0.017801 -1.345680 -0.192950
-0.017802 -1.365332 -0.192962
-0.017803 -1.384984 -0.192974
-0.013766 -1.404628 -0.149213
-0.013768 -1.424279 -0.149230
-0.009731 -1.443920 -0.105474
-0.009733 -1.463569 -0.105497
-0.005697 -1.483206 -0.061747
-0.005699 -1.502854 -0.061774
-0.005702 -1.522501 -0.061803
-0.005705 -1.542148 -0.061835
-0.001669 -1.561778 -0.018095
-0.001673 -1.581422 -0.018130
-0.001676 -1.601066 -0.018168
-0.001680 -1.620710 -0.018207
0.002355 -1.640333 0.025523
0.002351 -1.659974 0.025480
0.002347 -1.679614 0.025435
0.002342 -1.699254 0.025388
0.006376 -1.718869 0.069111
0.006371 -1.738506 0.069061
0.010405 -1.758117 0.112781
0.010400 -1.777751 0.112727
0.014433 -1.797357 0.156446
0.010390 -1.817016 0.112615
0.006346 -1.836674 0.068783
0.006340 -1.856305 0.068723
-0.001742 -1.875993 -0.018884
-0.005786 -1.895653 -0.062720
-0.005792 -1.915282 -0.062786
-0.005799 -1.934909 -0.062853
-0.005805 -1.954535 -0.062922
-0.005811 -1.974160 -0.062992
-0.005818 -1.993783 -0.063063
-0.013902 -2.013474 -0.150684
-0.070458 -2.033604 -0.763704
-0.066424 -2.053196 -0.719986
-0.066432 -2.072822 -0.720067
-0.066439 -2.092447 -0.720148
-0.074528 -2.112148 -0.807824
-0.070495 -2.131730 -0.764110
-0.074544 -2.151389 -0.807993
-0.074552 -2.171006 -0.808080
-0.074560 -2.190621 -0.808167
-0.078609 -2.210275 -0.852056
-0.078617 -2.229887 -0.852145
-0.082667 -2.249537 -0.896038
-0.078634 -2.269101 -0.852327
-0.078642 -2.288705 -0.852420
-0.078651 -2.308307 -0.852512
-0.074619 -2.327862 -0.808808
-0.070587 -2.347414 -0.765105
-0.070596 -2.367008 -0.765200
-0.066564 -2.386555 -0.721500
-0.062533 -2.406100 -0.677803
-0.058501 -2.425642 -0.634106
-0.058510 -2.445227 -0.634201
-0.054479 -2.464766 -0.590504
-0.058527 -2.484390 -0.634390
-0.070657 -2.504102 -0.765867
-0.070666 -2.523677 -0.765962
-0.074715 -2.543295 -0.809854
-0.078765 -2.562910 -0.853746
-0.082814 -2.582522 -0.897640
-0.082823 -2.602088 -0.897734
-0.082832 -2.621652 -0.897826
-0.082840 -2.641214 -0.897918
-0.086889 -2.660816 -0.941810
-0.090939 -2.680415 -0.985703
-0.099030 -2.700052 -1.073401
-0.099038 -2.719604 -1.073488
-0.103087 -2.739193 -1.117381
-0.107137 -2.758779 -1.161273
-0.107144 -2.778323 -1.161356
-0.107152 -2.797865 -1.161438
-0.107159 -2.817405 -1.161519
-0.087005 -2.973517 -0.943067
-0.087011 -2.993049 -0.943128
-0.095100 -3.012634 -1.030801
-0.095105 -3.032162 -1.030858
-0.103193 -3.051739 -1.118527
-0.107239 -3.071286 -1.162386
-0.115327 -3.090853 -1.250047
-0.119372 -3.110393 -1.293900
-0.123418 -3.129930 -1.337749
-0.127463 -3.149464 -1.381596
-0.127467 -3.168976 -1.381635
-0.127470 -3.188489 -1.381670
-0.127473 -3.208002 -1.381703
-0.131517 -3.227527 -1.425536
-0.131519 -3.247038 -1.425563
-0.131522 -3.266549 -1.425587
-0.127482 -3.286052 -1.381803
-0.127484 -3.305565 -1.381819
-0.123444 -3.325073 -1.338027
-0.123444 -3.344590 -1.338036
-0.119403 -3.364105 -1.294234
-0.115362 -3.383625 -1.250425
-0.095132 -3.539934 -1.031158
-0.103216 -3.559440 -1.118780
-0.119385 -3.578903 -1.294034
-0.123423 -3.598422 -1.337809
-0.123419 -3.617960 -1.337764
-0.125346 0.736975 -0.842789
-0.125371 0.717243 -0.842958
-0.131892 0.697440 -0.886803
-0.138411 0.677647 -0.930633
-0.138433 0.657933 -0.930783
-0.144948 0.638157 -0.974590
-0.144969 0.618454 -0.974727
-0.144989 0.598755 -0.974860
-0.145008 0.579061 -0.974988
-0.151518 0.559314 -1.018759
-0.151535 0.539630 -1.018875
-0.151551 0.519951 -1.018986
-0.151567 0.500275 -1.019093
-0.151583 0.480602 -1.019196
-0.151597 0.460934 -1.019294
-0.151611 0.441269 -1.019387
-0.151624 0.421608 -1.019476
-0.151637 0.401950 -1.019560
-0.151649 0.382295 -1.019640
-0.151660 0.362643 -1.019716
-0.151671 0.342994 -1.019788
-0.151681 0.323349 -1.019855
-0.151690 0.303706 -1.019918
-0.151699 0.284065 -1.019976
-0.151707 0.264427 -1.020030
-0.151714 0.244792 -1.020081
-0.145236 0.225180 -0.976522
-0.145242 0.205547 -0.976567
-0.145249 0.185916 -0.976607
-0.138769 0.166304 -0.933043
-0.138774 0.146675 -0.933077
-0.138779 0.127048 -0.933109
-0.138783 0.107423 -0.933136
-0.138787 0.087799 -0.933160
-0.138790 0.068176 -0.933180
-0.138792 0.048555 -0.933197
-0.138794 0.028934 -0.933211
-0.138796 0.009315 -0.933221
-0.138797 -0.010303 -0.933227
-0.138797 -0.029921 -0.933231
-0.138797 -0.049537 -0.933233
-0.145279 -0.069152 -0.976810
-0.145278 -0.088766 -0.976804
-0.138795 -0.108384 -0.933217
-0.132313 -0.128005 -0.889631
-0.132311 -0.147620 -0.889619
-0.125828 -0.167243 -0.846032
-0.119346 -0.186867 -0.802444
-0.119343 -0.206485 -0.802428
-0.119341 -0.226103 -0.802410
-0.119338 -0.245721 -0.802390
-0.119334 -0.265339 -0.802368
-0.119331 -0.284958 -0.802344
-0.112848 -0.304589 -0.758753
-0.112844 -0.324209 -0.758727
-0.112839 -0.343829 -0.758699
-0.112835 -0.363450 -0.758669
-0.112830 -0.383072 -0.758638
-0.106347 -0.402709 -0.715048
-0.106342 -0.422333 -0.715015
-0.106337 -0.441957 -0.714981
-0.106332 -0.461582 -0.714946
-0.106327 -0.481207 -0.714910
-0.099844 -0.500851 -0.671323
-0.086885 -0.520512 -0.584192
-0.080404 -0.540158 -0.540612
-0.080399 -0.559788 -0.540579
-0.080394 -0.579420 -0.540544
-0.086864 -0.599035 -0.584049
-0.086859 -0.618667 -0.584013
-0.093329 -0.638283 -0.627514
-0.080373 -0.657953 -0.540401
-0.067418 -0.677621 -0.453297
-0.067413 -0.697258 -0.453264
-0.067408 -0.716895 -0.453230
-0.067403 -0.736534 -0.453197
-0.067398 -0.756173 -0.453163
-0.067393 -0.775813 -0.453130
-0.067388 -0.795454 -0.453097
-0.067383 -0.815096 -0.453064
-0.067378 -0.834739 -0.453032
-0.067374 -0.854382 -0.453001
-0.067369 -0.874027 -0.452970
-0.067365 -0.893672 -0.452940
-0.060888 -0.913332 -0.409394
-0.060884 -0.932978 -0.409367
-0.060880 -0.952626 -0.409341
-0.060877 -0.972274 -0.409316
-0.060873 -0.991923 -0.409292
-0.060870 -1.011573 -0.409269
-0.060866 -1.031223 -0.409247
-0.060863 -1.050874 -0.409226
-0.054390 -1.070535 -0.365701
-0.054387 -1.090186 -0.365685
-0.054385 -1.109839 -0.365669
-0.047913 -1.129497 -0.322155
-0.047912 -1.149150 -0.322143
-0.047910 -1.168803 -0.322134
-0.041440 -1.188459 -0.278629
-0.041439 -1.208112 -0.278624
-0.041439 -1.227766 -0.278620
-0.041438 -1.247419 -0.278619
-0.041438 -1.267073 -0.278619
-0.034970 -1.286725 -0.235130
-0.034971 -1.306378 -0.235134
-0.028504 -1.326027 -0.191652
-0.028505 -1.345680 -0.191662
-0.028507 -1.365332 -0.191673
-0.028509 -1.384984 -0.191685
-0.022044 -1.404628 -0.148216
-0.015579 -1.424270 -0.104749
-0.015582 -1.443920 -0.104770
-0.009118 -1.463558 -0.061310
-0.009122 -1.483206 -0.061335
-0.009126 -1.502854 -0.061362
-0.009130 -1.522501 -0.061390
-0.009135 -1.542148 -0.061422
-0.002673 -1.561778 -0.017974
-0.002678 -1.581422 -0.018009
-0.002684 -1.601066 -0.018046
-0.002690 -1.620710 -0.018085
0.003771 -1.640333 0.025353
0.003764 -1.659974 0.025310
0.003758 -1.679614 0.025265
0.003751 -1.699254 0.025219
0.010210 -1.718869 0.068650
0.010203 -1.738506 0.068600
0.016662 -1.758117 0.112028
0.023121 -1.777725 0.155456
0.016645 -1.797384 0.111919
0.016637 -1.817016 0.111862
0.016628 -1.836646 0.111804
0.010153 -1.856305 0.068264
0.003677 -1.875963 0.024721
-0.009266 -1.895653 -0.062301
-0.009276 -1.915282 -0.062366
-0.009285 -1.934909 -0.062433
-0.009296 -1.954535 -0.062502
-0.009306 -1.974160 -0.062571
-0.009317 -1.993783 -0.062642
-0.022261 -2.013474 -0.149677
-0.106355 -2.033567 -0.715099
-0.106367 -2.053196 -0.715177
-0.106378 -2.072822 -0.715257
-0.106391 -2.092447 -0.715338
-0.119343 -2.112148 -0.802428
-0.119356 -2.131769 -0.802512
-0.119368 -2.151389 -0.802596
-0.119381 -2.171006 -0.802682
-0.119394 -2.190621 -0.802769
-0.119407 -2.210234 -0.802858
-0.125891 -2.229887 -0.846454
-0.125904 -2.249495 -0.846544
-0.132389 -2.269144 -0.890144
-0.125932 -2.288705 -0.846726
-0.125945 -2.308307 -0.846818
-0.119489 -2.327862 -0.803406
-0.119502 -2.347458 -0.803499
-0.113046 -2.367008 -0.760089
-0.113060 -2.386599 -0.760183
-0.106604 -2.406144 -0.716776
-0.106618 -2.425731 -0.716871
-0.106633 -2.445316 -0.716965
-0.093707 -2.464810 -0.630059
-0.087252 -2.484346 -0.586653
-0.100205 -2.504013 -0.673747
-0.113159 -2.523677 -0.760846
-0.119643 -2.543295 -0.804445
-0.132598 -2.562954 -0.891552
-0.132612 -2.582522 -0.891645
-0.139097 -2.602132 -0.935246
-0.139111 -2.621696 -0.935338
-0.132653 -2.641214 -0.891920
-0.139138 -2.660816 -0.935520
-0.145622 -2.680415 -0.979119
-0.152107 -2.700011 -1.022719
-0.152120 -2.719563 -1.022806
-0.158604 -2.739153 -1.066404
-0.158616 -2.758700 -1.066489
-0.158629 -2.778246 -1.066572
-0.165112 -2.797827 -1.110166
-0.165124 -2.817368 -1.110246
-0.165136 -2.836907 -1.110325
-0.158676 -2.856408 -1.066890
-0.158687 -2.875945 -1.066964
-0.152226 -2.895446 -1.023525
-0.152237 -2.914980 -1.023596
-0.145776 -2.934481 -0.980152
-0.145785 -2.954014 -0.980218
-0.139323 -2.973517 -0.936768
-0.145804 -2.993077 -0.980343
-0.145813 -3.012607 -0.980402
-0.152293 -3.032162 -1.023973
-0.158773 -3.051713 -1.067541
-0.165252 -3.071262 -1.111108
-0.171731 -3.090808 -1.154671
-0.178210 -3.110351 -1.198232
-0.184688 -3.129889 -1.241789
-0.191166 -3.149426 -1.285344
-0.191172 -3.168942 -1.285382
-0.197649 -3.188473 -1.328930
-0.197653 -3.207987 -1.328962
-0.197658 -3.227501 -1.328993
-0.204133 -3.247026 -1.372531
-0.204137 -3.266539 -1.372553
-0.204140 -3.286052 -1.372573
-0.204142 -3.305565 -1.372590
-0.204144 -3.325079 -1.372603
-0.197674 -3.344590 -1.329099
-0.191203 -3.364105 -1.285589
-0.184731 -3.383625 -1.242073
-0.178257 -3.403151 -1.198550
-0.165310 -3.422686 -1.111492
-0.158833 -3.442225 -1.067949
-0.152356 -3.461770 -1.024396
-0.145877 -3.481320 -0.980833
-0.161698 0.736975 -0.836575
-0.170112 0.717165 -0.880105
-0.178523 0.697366 -0.923619
-0.186930 0.677576 -0.967118
-0.195335 0.657797 -1.010602
-0.195362 0.638092 -1.010741
-0.203763 0.618329 -1.054203
-0.203787 0.598635 -1.054330
-0.203811 0.578945 -1.054452
-0.203833 0.559259 -1.054569
-0.203855 0.539577 -1.054681
-0.203876 0.519900 -1.054790
-0.203896 0.500226 -1.054893
-0.212286 0.480510 -1.098300
-0.212304 0.460846 -1.098392
-0.212321 0.441185 -1.098480
-0.212337 0.421528 -1.098563
-0.212352 0.401874 -1.098643
-0.212367 0.382224 -1.098718
-0.212380 0.362576 -1.098788
-0.204026 0.342962 -1.055563
-0.204038 0.323318 -1.055628
-0.204050 0.303677 -1.055688
-0.204061 0.284039 -1.055744
-0.204071 0.264403 -1.055796
-0.204080 0.244770 -1.055844
-0.195723 0.225159 -1.012607
-0.195731 0.205528 -1.012648
-0.195738 0.185899 -1.012687
-0.195745 0.166271 -1.012721
-0.195751 0.146646 -1.012752
-0.195756 0.127022 -1.012780
-0.195761 0.107400 -1.012803
-0.195765 0.087780 -1.012823
-0.204131 0.068153 -1.056107
-0.204133 0.048537 -1.056118
-0.204135 0.028921 -1.056127
-0.204136 0.009307 -1.056132
-0.204136 -0.010307 -1.056135
-0.204136 -0.029921 -1.056134
-0.204135 -0.049533 -1.056130
-0.204134 -0.069145 -1.056124
-0.204132 -0.088757 -1.056115
-0.204130 -0.108369 -1.056103
-0.204127 -0.127980 -1.056089
-0.195764 -0.147599 -1.012820
-0.187401 -0.167221 -0.969550
-0.179037 -0.186843 -0.926281
-0.170674 -0.206468 -0.883012
-0.162311 -0.226094 -0.839743
-0.162307 -0.245711 -0.839722
-0.162302 -0.265328 -0.839698
-0.162297 -0.284945 -0.839673
-0.162292 -0.304563 -0.839645
-0.153928 -0.324196 -0.796375
-0.153922 -0.343815 -0.796345
-0.145559 -0.363450 -0.753075
-0.145553 -0.383072 -0.753044
-0.145547 -0.402694 -0.753012
-0.145540 -0.422317 -0.752977
-0.145533 -0.441940 -0.752942
-0.137170 -0.461582 -0.709675
-0.137163 -0.481207 -0.709639
-0.137156 -0.500834 -0.709602
-0.137149 -0.520461 -0.709564
-0.112077 -0.540142 -0.579851
-0.103716 -0.559788 -0.536593
-0.103709 -0.579420 -0.536559
-0.112056 -0.599035 -0.579743
-0.112049 -0.618667 -0.579707
-0.120395 -0.638283 -0.622887
-0.120388 -0.657917 -0.622849
-0.120380 -0.677553 -0.622810
-0.120373 -0.697189 -0.622772
-0.103661 -0.716863 -0.536309
-0.086951 -0.736534 -0.449855
-0.086944 -0.756173 -0.449822
-0.086938 -0.775813 -0.449789
-0.086932 -0.795454 -0.449756
-0.086925 -0.815096 -0.449724
-0.086919 -0.834739 -0.449692
-0.086913 -0.854382 -0.449661
-0.086907 -0.874027 -0.449630
-0.086902 -0.893672 -0.449601
-0.086896 -0.913319 -0.449571
-0.078542 -0.932978 -0.406349
-0.078537 -0.952626 -0.406323
-0.078532 -0.972274 -0.406298
-0.078527 -0.991923 -0.406274
-0.078523 -1.011573 -0.406252
-0.078519 -1.031223 -0.406230
-0.070167 -1.050884 -0.363023
-0.070164 -1.070535 -0.363005
-0.070161 -1.090186 -0.362989
-0.061811 -1.109845 -0.319792
-0.061809 -1.129497 -0.319780
-0.061807 -1.149150 -0.319768
-0.061805 -1.168803 -0.319759
-0.061804 -1.188456 -0.319752
-0.061802 -1.208110 -0.319746
-0.053456 -1.227766 -0.276566
-0.053456 -1.247419 -0.276565
-0.053456 -1.267073 -0.276565
-0.045112 -1.286725 -0.233396
-0.045113 -1.306378 -0.233401
-0.036771 -1.326027 -0.190239
-0.036772 -1.345680 -0.190249
-0.036775 -1.365332 -0.190260
-0.036777 -1.384984 -0.190272
-0.028437 -1.404628 -0.147123
-0.028440 -1.424279 -0.147140
-0.020101 -1.443920 -0.103997
-0.011763 -1.463558 -0.060858
-0.011768 -1.483206 -0.060883
-0.011773 -1.502854 -0.060909
-0.011778 -1.522501 -0.060938
-0.011784 -1.542148 -0.060969
-0.003449 -1.561778 -0.017842
-0.003455 -1.581422 -0.017877
-0.003462 -1.601066 -0.017913
-0.003470 -1.620710 -0.017952
0.004864 -1.640333 0.025166
0.004856 -1.659974 0.025124
0.004847 -1.679614 0.025079
0.004838 -1.699254 0.025033
0.013171 -1.718869 0.068144
0.013162 -1.738506 0.068094
0.021494 -1.758117 0.111202
0.029826 -1.777725 0.154310
0.021473 -1.797384 0.111094
0.029805 -1.816988 0.154199
0.021451 -1.836646 0.110980
0.013097 -1.856305 0.067760
0.004743 -1.875963 0.024539
-0.011953 -1.895653 -0.061842
-0.011966 -1.915282 -0.061906
-0.011978 -1.934909 -0.061973
-0.011992 -1.954535 -0.062041
-0.012005 -1.974160 -0.062109
-0.012019 -1.993783 -0.062180
-0.037059 -2.013510 -0.191734
-0.137200 -2.033567 -0.709827
-0.128869 -2.053159 -0.666725
-0.137230 -2.072822 -0.709984
-0.162287 -2.092562 -0.839618
-0.162302 -2.112186 -0.839700
-0.153971 -2.131769 -0.796595
-0.153987 -2.151389 -0.796679
-0.154004 -2.171006 -0.796764
-0.154020 -2.190621 -0.796851
-0.162385 -2.210275 -0.840125
-0.162402 -2.229887 -0.840213
-0.162419 -2.249495 -0.840303
-0.162436 -2.269101 -0.840392
-0.162454 -2.288705 -0.840484
-0.154124 -2.308263 -0.797390
-0.154142 -2.327862 -0.797482
-0.154160 -2.347458 -0.797575
-0.154178 -2.367052 -0.797668
-0.145850 -2.386599 -0.754579
-0.145868 -2.406189 -0.754673
-0.137540 -2.425731 -0.711585
-0.129212 -2.445271 -0.668499
-0.120884 -2.464810 -0.625414
-0.112556 -2.484346 -0.582328
-0.129266 -2.504013 -0.668780
-0.129284 -2.523589 -0.668872
-0.162689 -2.543339 -0.841699
-0.179402 -2.562998 -0.928167
-0.179420 -2.582566 -0.928259
-0.179437 -2.602132 -0.928351
-0.179455 -2.621696 -0.928443
-0.171125 -2.641214 -0.885345
-0.171142 -2.660774 -0.885434
-0.179507 -2.680373 -0.928711
-0.187872 -2.699970 -0.971988
-0.196237 -2.719563 -1.015265
-0.204601 -2.739153 -1.058542
-0.204618 -2.758700 -1.058626
-0.204634 -2.778246 -1.058709
-0.212998 -2.797827 -1.101982
-0.204665 -2.817330 -1.058869
-0.204680 -2.836870 -1.058947
-0.204695 -2.856408 -1.059024
-0.196361 -2.875910 -1.015906
-0.196375 -2.895446 -1.015979
-0.188040 -2.914947 -0.972857
-0.188053 -2.934481 -0.972926
-0.179717 -2.953984 -0.929798
-0.179729 -2.973517 -0.929861
-0.179741 -2.993049 -0.929922
-0.179752 -3.012580 -0.929980
-0.196460 -3.032162 -1.016423
-0.204820 -3.051713 -1.059671
-0.213178 -3.071262 -1.102916
-0.213188 -3.090785 -1.102965
-0.221545 -3.110329 -1.146204
-0.229903 -3.129869 -1.189441
-0.238259 -3.149407 -1.232675
-0.238266 -3.168924 -1.232714
-0.238273 -3.188441 -1.232748
-0.238279 -3.207958 -1.232780
-0.246633 -3.227488 -1.276002
-0.246638 -3.247004 -1.276028
-0.246643 -3.266519 -1.276051
-0.246647 -3.286035 -1.276070
-0.246650 -3.305552 -1.276085
-0.246652 -3.325068 -1.276098
-0.246654 -3.344586 -1.276106
-0.238305 -3.364104 -1.232915
-0.238306 -3.383625 -1.232916
-0.238305 -3.403147 -1.232913
-0.229954 -3.422676 -1.189705
-0.202781 0.776453 -0.827211
-0.213341 0.756630 -0.870286
-0.223896 0.736817 -0.913346
-0.234448 0.717014 -0.956391
-0.244996 0.697221 -0.999421
-0.255541 0.677439 -1.042438
-0.255575 0.657731 -1.042576
-0.266115 0.637965 -1.085570
-0.276651 0.618210 -1.128551
-0.276681 0.598520 -1.128671
-0.276709 0.578834 -1.128786
-0.287239 0.559101 -1.171741
-0.287264 0.539426 -1.171845
-0.287288 0.519754 -1.171944
-0.287312 0.500087 -1.172040
-0.287334 0.480423 -1.172131
-0.287355 0.460763 -1.172218
-0.287376 0.441106 -1.172300
-0.287395 0.421453 -1.172379
-0.276915 0.401838 -1.129627
-0.276932 0.382190 -1.129699
-0.276949 0.362544 -1.129767
-0.276965 0.342901 -1.129830
-0.276979 0.323261 -1.129890
-0.276993 0.303624 -1.129946
-0.266510 0.284014 -1.087181
-0.266522 0.264380 -1.087231
-0.266533 0.244748 -1.087276
-0.266543 0.225119 -1.087318
-0.266553 0.205491 -1.087356
-0.266561 0.185866 -1.087390
-0.266568 0.166242 -1.087421
-0.266575 0.146620 -1.087448
-0.266581 0.127000 -1.087471
-0.266586 0.107381 -1.087492
-0.266590 0.087764 -1.087508
-0.266593 0.068147 -1.087522
-0.266596 0.048532 -1.087531
-0.266597 0.028918 -1.087539
-0.266598 0.009305 -1.087542
-0.266599 -0.010307 -1.087543
-0.266598 -0.029919 -1.087541
-0.266597 -0.049531 -1.087537
-0.266595 -0.069142 -1.087529
-0.277082 -0.088746 -1.130308
-0.277079 -0.108355 -1.130294
-0.266586 -0.127972 -1.087492
-0.277070 -0.147573 -1.130260
-0.277065 -0.167183 -1.130239
-0.277059 -0.186792 -1.130216
-0.266565 -0.206414 -1.087408
-0.266559 -0.226025 -1.087382
-0.256065 -0.245650 -1.044573
-0.245571 -0.265277 -1.001764
-0.235077 -0.284905 -0.958955
-0.224583 -0.304535 -0.916147
-0.203603 -0.324182 -0.830564
-0.203596 -0.343801 -0.830534
-0.203588 -0.363420 -0.830502
-0.203580 -0.383040 -0.830469
-0.193087 -0.402678 -0.787664
-0.193078 -0.422300 -0.787629
-0.193069 -0.441923 -0.787593
-0.193060 -0.461547 -0.787556
-0.182567 -0.481190 -0.744753
-0.182558 -0.500816 -0.744715
-0.172066 -0.520461 -0.701915
-0.172057 -0.540089 -0.701877
-0.130122 -0.559788 -0.530809
-0.130113 -0.579420 -0.530774
-0.130105 -0.599052 -0.530740
-0.130096 -0.618685 -0.530705
-0.130088 -0.638318 -0.530670
-0.140558 -0.657936 -0.573384
-0.140549 -0.677571 -0.573347
-0.140540 -0.697207 -0.573310
-0.151010 -0.716827 -0.616019
-0.161479 -0.736447 -0.658728
-0.161470 -0.756087 -0.658689
-0.161461 -0.775728 -0.658651
-0.150973 -0.795388 -0.615869
-0.098580 -0.815111 -0.402140
-0.098573 -0.834753 -0.402110
-0.098565 -0.854397 -0.402080
-0.098558 -0.874041 -0.402051
-0.098551 -0.893686 -0.402023
-0.098544 -0.913332 -0.401995
-0.098538 -0.932978 -0.401968
-0.098532 -0.952626 -0.401943
-0.098525 -0.972274 -0.401918
-0.098520 -0.991923 -0.401894
-0.098514 -1.011573 -0.401872
-0.088036 -1.031233 -0.359128
-0.088032 -1.050884 -0.359110
-0.088027 -1.070535 -0.359092
-0.088023 -1.090186 -0.359076
-0.077548 -1.109845 -0.316345
-0.077545 -1.129497 -0.316332
-0.077542 -1.149150 -0.316321
-0.077540 -1.168803 -0.316312
-0.077538 -1.188456 -0.316305
-0.067067 -1.208112 -0.273588
-0.067066 -1.227766 -0.273585
-0.067066 -1.247419 -0.273584
-0.067066 -1.267073 -0.273584
-0.056598 -1.286725 -0.230880
-0.056599 -1.306378 -0.230885
-0.046132 -1.326027 -0.188188
-0.046134 -1.345680 -0.188198
-0.046137 -1.365332 -0.188209
-0.035673 -1.384977 -0.145522
-0.035677 -1.404628 -0.145537
-0.025214 -1.424270 -0.102856
-0.025219 -1.443920 -0.102876
-0.014758 -1.463558 -0.060202
-0.014764 -1.483206 -0.060226
-0.014770 -1.502854 -0.060253
-0.014777 -1.522501 -0.060281
-0.014785 -1.542148 -0.060311
-0.004327 -1.561778 -0.017649
-0.004335 -1.581422 -0.017684
-0.004344 -1.601066 -0.017720
-0.004353 -1.620710 -0.017759
0.006103 -1.640333 0.024895
0.006092 -1.659974 0.024853
0.006082 -1.679614 0.024809
0.006070 -1.699254 0.024763
0.016525 -1.718869 0.067409
0.016512 -1.738506 0.067360
0.026966 -1.758117 0.110003
0.026953 -1.777751 0.109951
0.037406 -1.797357 0.152593
0.037393 -1.816988 0.152537
0.026912 -1.836646 0.109784
0.016432 -1.856305 0.067030
0.005951 -1.875963 0.024275
-0.014996 -1.895653 -0.061175
-0.015012 -1.915282 -0.061239
-0.015028 -1.934909 -0.061305
-0.015045 -1.954535 -0.061372
-0.015061 -1.974160 -0.061440
-0.015078 -1.993783 -0.061510
-0.182583 -2.013972 -0.744817
-0.172130 -2.033567 -0.702175
-0.172149 -2.053196 -0.702252
-0.172168 -2.072822 -0.702330
-0.203604 -2.092562 -0.830567
-0.203624 -2.112186 -0.830647
-0.203644 -2.131809 -0.830729
-0.203664 -2.151429 -0.830812
-0.203685 -2.171046 -0.830896
-0.203706 -2.190662 -0.830982
-0.203727 -2.210275 -0.831068
-0.203748 -2.229887 -0.831155
-0.203770 -2.249495 -0.831244
-0.203791 -2.269101 -0.831333
-0.203814 -2.288705 -0.831423
-0.203836 -2.308307 -0.831513
-0.203858 -2.327906 -0.831604
-0.203881 -2.347502 -0.831697
-0.193431 -2.367052 -0.789069
-0.193454 -2.386644 -0.789162
-0.183005 -2.406189 -0.746537
-0.172556 -2.425731 -0.703914
-0.162108 -2.445271 -0.661292
-0.162131 -2.464854 -0.661385
-0.183096 -2.484523 -0.746909
-0.172647 -2.504057 -0.704285
-0.162199 -2.523589 -0.661662
-0.225054 -2.543427 -0.918069
-0.256498 -2.563129 -1.046339
-0.256520 -2.582697 -1.046430
-0.256542 -2.602262 -1.046520
-0.225143 -2.621696 -0.918434
-0.204220 -2.641171 -0.833079
-0.204241 -2.660732 -0.833167
-0.214735 -2.680331 -0.875976
-0.225230 -2.699928 -0.918786
-0.225251 -2.719481 -0.918872
-0.235745 -2.739073 -0.961680
-0.246239 -2.758661 -1.004488
-0.246259 -2.778207 -1.004570
-0.246278 -2.797750 -1.004650
-0.246298 -2.817293 -1.004729
-0.246316 -2.836834 -1.004806
-0.246335 -2.856372 -1.004881
-0.246353 -2.875910 -1.004955
-0.246370 -2.895446 -1.005026
-0.235914 -2.914947 -0.962370
-0.235930 -2.934481 -0.962437
-0.225472 -2.953984 -0.919775
-0.215013 -2.973487 -0.877109
-0.215028 -2.993021 -0.877168
-0.215041 -3.012553 -0.877225
-0.236004 -3.032135 -0.962737
-0.246491 -3.051689 -1.005519
-0.246504 -3.071215 -1.005569
-0.256990 -3.090763 -1.048346
-0.267475 -3.110308 -1.091120
-0.277960 -3.129849 -1.133891
-0.277970 -3.149370 -1.133931
-0.288453 -3.168907 -1.176697
-0.288462 -3.188425 -1.176731
-0.298944 -3.207958 -1.219491
-0.298951 -3.227475 -1.219519
-0.298957 -3.246992 -1.219544
-0.298962 -3.266509 -1.219566
-0.298967 -3.286027 -1.219584
-0.288496 -3.305539 -1.176869
-0.288498 -3.325059 -1.176880
-0.288500 -3.344580 -1.176888
-0.278025 -3.364102 -1.134157
-0.278025 -3.383627 -1.134156
-0.225613 -3.481334 -0.920351
-0.215124 -3.500895 -0.877561
-0.215115 -3.520443 -0.877523
-0.215104 -3.539993 -0.877481
-0.256010 0.796113 -0.858329
-0.256062 0.776369 -0.858503
-0.281358 0.756470 -0.943314
-0.281406 0.736740 -0.943473
-0.306689 0.716868 -1.028240
-0.319348 0.697082 -1.070683
-0.332003 0.677307 -1.113111
-0.344654 0.657541 -1.155525
-0.344691 0.637844 -1.155650
-0.357336 0.618095 -1.198045
-0.357369 0.598409 -1.198158
-0.370009 0.578677 -1.240535
-0.370039 0.559001 -1.240637
-0.370069 0.539330 -1.240736
-0.370097 0.519663 -1.240829
-0.370124 0.499999 -1.240919
-0.370149 0.480340 -1.241005
-0.370173 0.460684 -1.241086
-0.370197 0.441031 -1.241164
-0.370218 0.421382 -1.241237
-0.370239 0.401736 -1.241307
-0.370259 0.382093 -1.241372
-0.370277 0.362453 -1.241433
-0.357694 0.342844 -1.199247
-0.357711 0.323208 -1.199303
-0.357726 0.303575 -1.199354
-0.357740 0.283944 -1.199401
-0.357753 0.264315 -1.199445
-0.357765 0.244689 -1.199485
-0.357776 0.225065 -1.199521
-0.357786 0.205443 -1.199554
-0.357794 0.185823 -1.199583
-0.345206 0.166216 -1.157377
-0.345213 0.146598 -1.157401
-0.345219 0.126981 -1.157421
-0.345224 0.107365 -1.157438
-0.345228 0.087751 -1.157452
-0.345231 0.068138 -1.157462
-0.345234 0.048525 -1.157470
-0.345235 0.028914 -1.157475
-0.345235 0.009304 -1.157476
-0.357828 -0.010304 -1.199696
-0.370419 -0.029909 -1.241911
-0.370417 -0.049515 -1.241902
-0.370413 -0.069121 -1.241891
-0.370410 -0.088727 -1.241878
-0.370405 -0.108332 -1.241862
-0.382991 -0.127928 -1.284061
-0.382985 -0.147533 -1.284040
-0.382978 -0.167138 -1.284017
-0.382971 -0.186744 -1.283992
-0.382963 -0.206350 -1.283966
-0.370363 -0.225970 -1.241722
-0.370354 -0.245578 -1.241693
-0.345164 -0.265218 -1.157236
-0.345154 -0.284829 -1.157204
-0.332554 -0.304457 -1.114960
-0.319954 -0.324087 -1.072716
-0.319944 -0.343702 -1.072681
-0.307344 -0.363336 -1.030438
-0.307333 -0.382953 -1.030400
-0.307321 -0.402571 -1.030361
-0.307309 -0.422190 -1.030321
-0.307297 -0.441810 -1.030281
-0.294698 -0.461451 -0.988037
-0.294685 -0.481073 -0.987995
-0.282086 -0.500718 -0.945753
-0.282073 -0.520343 -0.945710
-0.269475 -0.539991 -0.903472
-0.269462 -0.559619 -0.903428
-0.269449 -0.579248 -0.903385
-0.269436 -0.598878 -0.903341
-0.219088 -0.618593 -0.734540
-0.156168 -0.638318 -0.523588
-0.156158 -0.657953 -0.523553
-0.105828 -0.677651 -0.354812
-0.118399 -0.697273 -0.396957
-0.143547 -0.716879 -0.481273
-0.156116 -0.736501 -0.523413
-0.156105 -0.756140 -0.523377
-0.156095 -0.775781 -0.523342
-0.181241 -0.795388 -0.607650
-0.181230 -0.815030 -0.607614
-0.168642 -0.834691 -0.565409
-0.143478 -0.854367 -0.481042
-0.118318 -0.874041 -0.396686
-0.118309 -0.893686 -0.396658
-0.118301 -0.913332 -0.396630
-0.118293 -0.932978 -0.396604
-0.118286 -0.952626 -0.396579
-0.118279 -0.972274 -0.396554
-0.118272 -0.991923 -0.396531
-0.118265 -1.011573 -0.396509
-0.105686 -1.031233 -0.354336
-0.105681 -1.050884 -0.354317
-0.105676 -1.070535 -0.354300
-0.093100 -1.090194 -0.312137
-0.093096 -1.109845 -0.312123
-0.093092 -1.129497 -0.312111
-0.093089 -1.149150 -0.312100
-0.093086 -1.168803 -0.312091
-0.080515 -1.188459 -0.269942
-0.080513 -1.208112 -0.269937
-0.080512 -1.227766 -0.269934
-0.080512 -1.247419 -0.269933
-0.067944 -1.267072 -0.227796
-0.067945 -1.286725 -0.227799
-0.067946 -1.306378 -0.227804
-0.055381 -1.326027 -0.185677
-0.055384 -1.345680 -0.185686
-0.055387 -1.365332 -0.185697
-0.042825 -1.384977 -0.143580
-0.042829 -1.404628 -0.143595
-0.030269 -1.424270 -0.101483
-0.030275 -1.443920 -0.101503
-0.030282 -1.463569 -0.101525
-0.017724 -1.483206 -0.059423
-0.017731 -1.502854 -0.059449
-0.017740 -1.522501 -0.059476
-0.005184 -1.542132 -0.017381
-0.005194 -1.561778 -0.017414
-0.005204 -1.581422 -0.017448
-0.005215 -1.601066 -0.017484
0.007338 -1.620691 0.024602
0.007326 -1.640333 0.024562
0.007314 -1.659974 0.024521
0.007301 -1.679614 0.024478
0.019851 -1.699231 0.066556
0.019837 -1.718869 0.066509
0.019823 -1.738506 0.066461
0.032372 -1.758117 0.108535
0.044922 -1.777725 0.150609
0.044906 -1.797357 0.150556
0.044889 -1.816988 0.150501
0.032308 -1.836646 0.108319
0.032290 -1.856276 0.108261
0.019708 -1.875934 0.066076
-0.005439 -1.895622 -0.018235
-0.005458 -1.915250 -0.018298
-0.005477 -1.934877 -0.018362
-0.005497 -1.954503 -0.018428
-0.005517 -1.974127 -0.018495
-0.030666 -1.993817 -0.102814
-0.194048 -2.013901 -0.650586
-0.194070 -2.033531 -0.650661
-0.194092 -2.053159 -0.650736
-0.206685 -2.072822 -0.692958
-0.244424 -2.092562 -0.819483
-0.244447 -2.112186 -0.819563
-0.231899 -2.131769 -0.777492
-0.231923 -2.151389 -0.777574
-0.231948 -2.171006 -0.777657
-0.231974 -2.190621 -0.777742
-0.231999 -2.210234 -0.777827
-0.232025 -2.229844 -0.777913
-0.244623 -2.249495 -0.820151
-0.257222 -2.269144 -0.862392
-0.244676 -2.288705 -0.820328
-0.244702 -2.308307 -0.820417
-0.232157 -2.327862 -0.778358
-0.232184 -2.347458 -0.778448
-0.219640 -2.367008 -0.736392
-0.219668 -2.386599 -0.736483
-0.207124 -2.406144 -0.694429
-0.194581 -2.425687 -0.652376
-0.194609 -2.445271 -0.652468
-0.219777 -2.464943 -0.736851
-0.232376 -2.484568 -0.779090
-0.219832 -2.504102 -0.737034
-0.282720 -2.523899 -0.947881
-0.307895 -2.543560 -1.032286
-0.320497 -2.563173 -1.074536
-0.333099 -2.582783 -1.116786
-0.333125 -2.602348 -1.116874
-0.345727 -2.621953 -1.159124
-0.320603 -2.641428 -1.074889
-0.282907 -2.660858 -0.948507
-0.282933 -2.680415 -0.948593
-0.245240 -2.699846 -0.822220
-0.257838 -2.719441 -0.864457
-0.270435 -2.739033 -0.906693
-0.283033 -2.758621 -0.948929
-0.283057 -2.778168 -0.949009
-0.295654 -2.797750 -0.991243
-0.295677 -2.817293 -0.991321
-0.295700 -2.836834 -0.991397
-0.295722 -2.856372 -0.991472
-0.295743 -2.875910 -0.991544
-0.283191 -2.895412 -0.949459
-0.283211 -2.914947 -0.949527
-0.270657 -2.934450 -0.907437
-0.270676 -2.953984 -0.907501
-0.258120 -2.973487 -0.865405
-0.258138 -2.993021 -0.865463
-0.258155 -3.012553 -0.865519
-0.270745 -3.032110 -0.907731
-0.283335 -3.051664 -0.949942
-0.295924 -3.071215 -0.992150
-0.308513 -3.090763 -1.034356
-0.308526 -3.110287 -1.034401
-0.321113 -3.129829 -1.076602
-0.321125 -3.149351 -1.076640
-0.333710 -3.168890 -1.118836
-0.333720 -3.188410 -1.118870
-0.346304 -3.207943 -1.161059
-0.346312 -3.227462 -1.161087
-0.346320 -3.246980 -1.161111
-0.346326 -3.266500 -1.161132
-0.346331 -3.286019 -1.161150
-0.333760 -3.305532 -1.119003
-0.333763 -3.325055 -1.119012
-0.333765 -3.344578 -1.119020
-0.321189 -3.364101 -1.076856
-0.308611 -3.383630 -1.034685
-0.296030 -3.403164 -0.992506
-0.283447 -3.422705 -0.950318
-0.283442 -3.442242 -0.950300
-0.283436 -3.461780 -0.950279
-0.270846 -3.481334 -0.908070
-0.270837 -3.500878 -0.908039
-0.258242 -3.520443 -0.865813
-0.312842 0.796029 -0.886273
-0.312901 0.776287 -0.886441
-0.342355 0.756392 -0.969886
-0.371799 0.736516 -1.053298
-0.386541 0.716727 -1.095062
-0.401279 0.696948 -1.136813
-0.416011 0.677179 -1.178551
-0.430740 0.657421 -1.220276
-0.445464 0.637671 -1.261989
-0.445503 0.617985 -1.262100
-0.460221 0.598252 -1.303795
-0.460256 0.578577 -1.303896
-0.460291 0.558906 -1.303993
-0.460323 0.539238 -1.304085
-0.460354 0.519575 -1.304174
-0.460384 0.499916 -1.304259
-0.460413 0.480260 -1.304339
-0.475114 0.460572 -1.345987
-0.475139 0.440925 -1.346059
-0.475163 0.421282 -1.346125
-0.475185 0.401641 -1.346189
-0.460534 0.382033 -1.304683
-0.460554 0.362397 -1.304740
-0.460573 0.342764 -1.304793
-0.460591 0.323134 -1.304843
-0.460607 0.303506 -1.304889
-0.460622 0.283880 -1.304932
-0.460636 0.264257 -1.304971
-0.460648 0.244636 -1.305005
-0.460659 0.225017 -1.305037
-0.460669 0.205400 -1.305066
-0.460678 0.185785 -1.305091
-0.460686 0.166172 -1.305113
-0.460692 0.146560 -1.305131
-0.460698 0.126949 -1.305147
-0.475369 0.107334 -1.346709
-0.475372 0.087728 -1.346718
-0.475374 0.068122 -1.346723
-0.475375 0.048517 -1.346726
-0.475375 0.028913 -1.346727
-0.460709 0.009307 -1.305177
-0.446042 -0.010300 -1.263627
-0.446040 -0.029905 -1.263621
-0.446037 -0.049510 -1.263612
-0.431368 -0.069121 -1.222056
-0.431363 -0.088727 -1.222043
-0.431358 -0.108332 -1.222027
-0.431352 -0.127938 -1.222010
-0.431345 -0.147544 -1.221990
-0.431337 -0.167150 -1.221968
-0.431328 -0.186756 -1.221944
-0.431319 -0.206363 -1.221918
-0.431309 -0.225970 -1.221890
-0.431299 -0.245578 -1.221861
-0.431288 -0.265187 -1.221830
-0.431277 -0.284796 -1.221797
-0.416602 -0.304423 -1.180226
-0.416590 -0.324035 -1.180190
-0.416577 -0.343648 -1.180154
-0.401902 -0.363280 -1.138580
-0.401889 -0.382896 -1.138542
-0.387214 -0.402532 -1.096968
-0.387200 -0.422150 -1.096928
-0.372525 -0.441789 -1.055355
-0.357851 -0.461431 -1.013785
-0.357836 -0.481053 -1.013743
-0.357821 -0.500676 -1.013700
-0.343148 -0.520323 -0.972131
-0.343133 -0.539949 -0.972088
-0.328460 -0.559598 -0.930521
-0.328445 -0.579227 -0.930478
-0.328429 -0.598857 -0.930434
-0.313758 -0.618510 -0.888870
-0.313743 -0.638143 -0.888827
-0.313727 -0.657777 -0.888783
-0.284404 -0.677454 -0.805710
-0.137882 -0.697273 -0.390617
-0.123223 -0.716926 -0.349087
-0.123212 -0.736564 -0.349058
-0.137850 -0.756188 -0.390526
-0.152486 -0.775813 -0.431991
-0.167122 -0.795438 -0.473454
-0.167111 -0.815080 -0.473422
-0.137808 -0.834753 -0.390407
-0.137798 -0.854397 -0.390378
-0.137788 -0.874041 -0.390350
-0.137778 -0.893686 -0.390323
-0.137769 -0.913332 -0.390296
-0.137759 -0.932978 -0.390270
-0.137751 -0.952626 -0.390245
-0.137742 -0.972274 -0.390221
-0.137734 -0.991923 -0.390198
-0.123085 -1.011583 -0.348697
-0.123078 -1.031233 -0.348677
-0.123071 -1.050884 -0.348658
-0.108425 -1.070543 -0.307166
-0.108420 -1.090194 -0.307151
-0.108415 -1.109845 -0.307138
-0.093772 -1.129503 -0.265655
-0.093769 -1.149155 -0.265646
-0.093766 -1.168807 -0.265637
-0.093764 -1.188459 -0.265631
-0.093762 -1.208112 -0.265626
-0.093761 -1.227766 -0.265623
-0.093761 -1.247419 -0.265622
-0.093761 -1.267073 -0.265622
-0.079125 -1.286725 -0.224161
-0.079127 -1.306378 -0.224165
-0.064494 -1.326027 -0.182711
-0.064498 -1.345680 -0.182721
-0.064501 -1.365332 -0.182731
-0.049872 -1.384977 -0.141286
-0.049877 -1.404628 -0.141302
-0.035250 -1.424270 -0.099862
-0.035257 -1.443920 -0.099882
-0.020632 -1.463558 -0.058450
-0.020640 -1.483206 -0.058474
-0.020649 -1.502854 -0.058499
-0.020659 -1.522501 -0.058526
-0.006037 -1.542132 -0.017104
-0.006049 -1.561778 -0.017136
-0.006060 -1.581422 -0.017169
0.008559 -1.601048 0.024247
0.008546 -1.620691 0.024209
0.008532 -1.640333 0.024170
0.008517 -1.659974 0.024129
0.008502 -1.679614 0.024087
0.023118 -1.699231 0.065493
0.023102 -1.718869 0.065447
0.023085 -1.738506 0.065399
0.037699 -1.758117 0.106802
0.052314 -1.777725 0.148204
0.052295 -1.797357 0.148152
0.037644 -1.817016 0.106644
0.037624 -1.836646 0.106589
0.037604 -1.856276 0.106532
0.008319 -1.875963 0.023568
-0.020965 -1.895653 -0.059394
-0.020987 -1.915282 -0.059457
-0.006378 -1.934877 -0.018069
-0.006401 -1.954503 -0.018134
-0.006424 -1.974127 -0.018200
-0.035712 -1.993817 -0.101172
-0.225980 -2.013901 -0.640196
-0.226005 -2.033531 -0.640269
-0.240670 -2.053196 -0.681814
-0.255337 -2.072860 -0.723364
-0.270004 -2.092524 -0.764916
-0.270032 -2.112148 -0.764995
-0.270060 -2.131769 -0.765074
-0.270088 -2.151389 -0.765155
-0.270117 -2.171006 -0.765237
-0.255507 -2.190580 -0.723845
-0.270176 -2.210234 -0.765404
-0.270206 -2.229844 -0.765489
-0.270237 -2.249452 -0.765575
-0.284908 -2.269101 -0.807138
-0.284939 -2.288705 -0.807226
-0.299612 -2.308350 -0.848793
-0.285001 -2.327906 -0.807402
-0.285033 -2.347502 -0.807492
-0.285064 -2.367097 -0.807581
-0.270456 -2.386644 -0.766195
-0.255848 -2.406189 -0.724810
-0.241240 -2.425731 -0.683428
-0.226633 -2.445271 -0.642047
-0.270583 -2.464988 -0.766557
-0.285256 -2.484613 -0.808123
-0.314570 -2.504279 -0.891171
-0.373175 -2.524031 -1.057197
-0.387851 -2.543647 -1.098774
-0.402528 -2.563260 -1.140352
-0.402558 -2.582826 -1.140439
-0.402589 -2.602391 -1.140525
-0.402619 -2.621953 -1.140611
-0.402649 -2.641512 -1.140696
-0.402679 -2.661068 -1.140781
-0.417353 -2.680664 -1.182353
-0.417383 -2.700216 -1.182436
-0.417411 -2.719765 -1.182517
-0.402795 -2.739273 -1.141110
-0.358893 -2.758700 -1.016737
-0.329636 -2.778168 -0.933852
-0.329664 -2.797713 -0.933930
-0.329691 -2.817256 -0.934007
-0.329717 -2.836797 -0.934081
-0.329743 -2.856337 -0.934154
-0.329768 -2.875875 -0.934225
-0.315150 -2.895378 -0.892812
-0.315173 -2.914915 -0.892879
-0.300553 -2.934418 -0.851461
-0.300575 -2.953954 -0.851523
-0.300596 -2.973487 -0.851583
-0.300617 -2.993021 -0.851640
-0.315280 -3.012580 -0.893181
-0.315298 -3.032110 -0.893233
-0.329960 -3.051664 -0.934770
-0.329977 -3.071191 -0.934818
-0.344638 -3.090741 -0.976351
-0.344653 -3.110266 -0.976394
-0.373955 -3.129829 -1.059407
-0.373969 -3.149351 -1.059445
-0.388625 -3.168890 -1.100966
-0.388637 -3.188410 -1.101000
-0.388647 -3.207930 -1.101029
-0.388657 -3.227449 -1.101056
-0.388665 -3.246970 -1.101079
-0.388672 -3.266490 -1.101100
-0.388678 -3.286011 -1.101117
-0.388683 -3.305532 -1.101130
-0.388686 -3.325055 -1.101140
-0.388689 -3.344578 -1.101147
-0.388690 -3.364102 -1.101150
-0.374043 -3.383628 -1.059655
-0.374041 -3.403157 -1.059649
-0.359389 -3.422692 -1.018142
-0.359384 -3.442225 -1.018128
-0.966494 0.736740 -0.187673
-1.009993 0.716940 -0.196119
-1.010144 0.697221 -0.196149
-1.010292 0.677507 -0.196177
-1.010434 0.657797 -0.196205
-1.010572 0.638092 -0.196232
-1.010706 0.618391 -0.196258
-1.054154 0.598635 -0.204695
-1.054276 0.578945 -0.204718
-1.054393 0.559259 -0.204741
-1.054505 0.539577 -0.204763
-1.054614 0.519900 -0.204784
-1.054717 0.500226 -0.204804
-1.054816 0.480556 -0.204823
-1.054911 0.460889 -0.204841
-1.055002 0.441227 -0.204859
-1.011791 0.421608 -0.196469
-1.011875 0.401950 -0.196485
-1.011954 0.382295 -0.196500
-1.012030 0.362643 -0.196515
-1.012100 0.342994 -0.196529
-0.968879 0.323380 -0.188136
-0.968944 0.303735 -0.188149
-0.969004 0.284092 -0.188160
-0.969061 0.264453 -0.188171
-0.969113 0.244815 -0.188181
-0.925882 0.225202 -0.179787
-0.925929 0.205568 -0.179796
-0.882694 0.185955 -0.171401
-0.882735 0.166322 -0.171408
-0.926044 0.146675 -0.179818
-0.969344 0.127035 -0.188226
-0.969369 0.107411 -0.188231
-0.926126 0.087799 -0.179834
-0.926146 0.068176 -0.179838
-0.926163 0.048555 -0.179841
-0.926176 0.028934 -0.179844
-0.926186 0.009315 -0.179846
-0.926193 -0.010303 -0.179847
-0.926197 -0.029921 -0.179848
-0.926198 -0.049537 -0.179848
-0.926195 -0.069154 -0.179848
-0.926191 -0.088769 -0.179847
-0.926183 -0.108384 -0.179845
-0.926173 -0.127999 -0.179843
-0.926160 -0.147614 -0.179841
-0.926144 -0.167229 -0.179838
-0.926126 -0.186843 -0.179834
-0.926107 -0.206458 -0.179830
-0.926085 -0.226073 -0.179826
-0.926060 -0.245688 -0.179821
-0.926035 -0.265303 -0.179816
-0.926006 -0.284919 -0.179811
-0.839505 -0.304563 -0.163014
-0.839476 -0.324182 -0.163008
-0.796212 -0.343815 -0.154608
-0.796181 -0.363436 -0.154602
-0.796149 -0.383056 -0.154595
-0.796115 -0.402678 -0.154589
-0.796080 -0.422300 -0.154582
-0.796044 -0.441923 -0.154575
-0.796006 -0.461547 -0.154568
-0.795967 -0.481172 -0.154560
-0.752706 -0.500816 -0.146160
-0.752667 -0.520443 -0.146152
-0.752627 -0.540071 -0.146144
-0.709368 -0.559719 -0.137744
-0.709329 -0.579349 -0.137737
-0.666074 -0.598999 -0.129338
-0.622822 -0.618649 -0.120939
-0.622783 -0.638283 -0.120931
-0.579536 -0.657936 -0.112534
-0.579499 -0.677571 -0.112526
-0.536256 -0.697225 -0.104130
-0.493016 -0.716879 -0.095733
-0.449780 -0.736534 -0.087338
-0.449747 -0.756173 -0.087331
-0.449714 -0.775813 -0.087325
-0.449682 -0.795454 -0.087319
-0.406454 -0.815111 -0.078925
-0.406424 -0.834753 -0.078919
-0.406394 -0.854397 -0.078913
-0.406365 -0.874041 -0.078907
-0.406336 -0.893686 -0.078902
-0.449496 -0.913319 -0.087283
-0.449469 -0.932966 -0.087277
-0.449442 -0.952614 -0.087272
-0.363047 -0.972285 -0.070496
-0.363024 -0.991934 -0.070492
-0.363002 -1.011583 -0.070487
-0.319803 -1.031242 -0.062099
-0.276608 -1.050900 -0.053711
-0.276592 -1.070550 -0.053708
-0.276578 -1.090200 -0.053706
-0.276565 -1.109851 -0.053703
-0.276554 -1.129503 -0.053701
-0.233373 -1.149159 -0.045316
-0.233366 -1.168810 -0.045315
-0.190193 -1.188464 -0.036931
-0.147023 -1.208116 -0.028549
-0.103858 -1.227767 -0.020167
-0.060697 -1.247415 -0.011786
-0.017538 -1.267061 -0.003406
-0.017546 -1.286711 -0.003407
-0.147039 -1.306372 -0.028552
-0.147046 -1.326023 -0.028553
-0.103897 -1.345669 -0.020175
-0.103911 -1.365319 -0.020177
-0.103925 -1.384970 -0.020180
-0.103942 -1.404620 -0.020183
-0.103959 -1.424270 -0.020187
-0.103980 -1.443920 -0.020191
-0.104003 -1.463569 -0.020195
-0.060873 -1.483206 -0.011820
-0.060899 -1.502854 -0.011825
-0.060927 -1.522501 -0.011831
-0.017806 -1.542132 -0.003457
-0.017839 -1.561778 -0.003464
-0.017874 -1.581422 -0.003471
0.025242 -1.601048 0.004901
0.068355 -1.620672 0.013273
0.068314 -1.640313 0.013265
0.068271 -1.659953 0.013257
0.111379 -1.679571 0.021627
0.154487 -1.699186 0.029998
0.154438 -1.718822 0.029989
0.154389 -1.738457 0.029979
0.197493 -1.758067 0.038349
0.197440 -1.777699 0.038339
0.197386 -1.797331 0.038328
0.197330 -1.816962 0.038317
0.154116 -1.836619 0.029926
0.154057 -1.856248 0.029915
0.067688 -1.875934 0.013144
-0.018680 -1.895622 -0.003627
-0.018744 -1.915250 -0.003640
-0.018810 -1.934877 -0.003653
-0.062030 -1.954535 -0.012045
-0.062099 -1.974160 -0.012058
-0.062170 -1.993783 -0.012072
-0.062242 -2.013405 -0.012086
-0.019160 -2.032991 -0.003721
0.023922 -2.052574 0.004645
0.023848 -2.072190 0.004631
-0.839478 -2.092562 -0.163009
-0.925930 -2.112264 -0.179796
-1.012395 -2.131965 -0.196586
-1.012477 -2.151588 -0.196602
-1.012560 -2.171208 -0.196618
-1.012645 -2.190826 -0.196634
-1.012731 -2.210441 -0.196651
-1.012818 -2.230054 -0.196668
-1.012906 -2.249664 -0.196685
-1.012994 -2.269272 -0.196702
-1.013084 -2.288877 -0.196720
-1.013174 -2.308480 -0.196737
-1.013265 -2.328080 -0.196755
-1.013356 -2.347678 -0.196772
-1.013449 -2.367273 -0.196790
-1.013541 -2.386866 -0.196808
-0.970447 -2.406412 -0.188440
-0.970541 -2.425999 -0.188459
-0.927450 -2.445539 -0.180091
-0.884363 -2.465077 -0.171725
-0.754923 -2.484523 -0.146590
-0.582323 -2.503925 -0.113075
-0.582415 -2.523501 -0.113093
-0.668853 -2.543163 -0.129877
-0.712120 -2.562778 -0.138279
-0.971287 -2.582610 -0.188603
-1.273706 -2.602475 -0.247327
-1.360191 -2.622118 -0.264120
-1.403476 -2.641717 -0.272526
-1.533172 -2.661389 -0.297710
-1.662879 -2.681050 -0.322896
-1.835814 -2.700733 -0.356476
-1.922320 -2.720338 -0.373274
-2.008825 -2.739935 -0.390071
-2.052104 -2.759498 -0.398475
-2.138602 -2.779080 -0.415272
-2.181873 -2.798631 -0.423674
-2.225138 -2.818178 -0.432075
-2.225180 -2.837702 -0.432083
-2.268438 -2.857240 -0.440483
-2.268475 -2.876757 -0.440490
-2.268511 -2.896272 -0.440497
-2.268546 -2.915784 -0.440504
-2.268580 -2.935293 -0.440510
-2.268613 -2.954801 -0.440517
-2.268643 -2.974306 -0.440523
-2.268673 -2.993809 -0.440529
-2.268701 -3.013310 -0.440534
-2.268728 -3.032809 -0.440539
-2.225560 -3.052295 -0.432157
-2.225585 -3.071791 -0.432162
-2.182421 -3.091275 -0.423780
-2.182445 -3.110769 -0.423785
-2.139283 -3.130252 -0.415404
-2.139305 -3.149745 -0.415408
-2.096145 -3.169227 -0.407027
-2.009807 -3.188700 -0.390262
-2.009827 -3.208194 -0.390266
-1.966669 -3.227678 -0.381886
-1.880335 -3.247155 -0.365121
-1.362227 -3.286052 -0.264516
-1.362243 -3.305565 -0.264519
-1.319071 -3.325073 -0.256136
-1.880397 -3.383630 -0.365134
-1.923563 -3.403126 -0.373516
-1.923557 -3.422624 -0.373514
-1.923548 -3.442123 -0.373513
-1.966701 -3.461617 -0.381892
-2.009849 -3.481107 -0.390270
-2.009829 -3.500607 -0.390266
-2.009807 -3.520109 -0.390262
-2.009781 -3.539612 -0.390257
-2.096071 -3.559087 -0.407013
-2.182348 -3.578558 -0.423766
-2.311763 -3.598005 -0.448896
-2.354867 -3.617486 -0.457266
-2.354822 -3.636989 -0.457257
-2.354774 -3.656493 -0.457247
-2.354724 -3.676001 -0.457238
-2.354671 -3.695510 -0.457227
-0.389766 0.795863 -0.951456
-0.406569 0.776047 -0.992474
-0.440100 0.756167 -1.074327
-0.456889 0.736374 -1.115312
-0.473673 0.716592 -1.156283
-0.507176 0.696757 -1.238067
-0.507226 0.677057 -1.238188
-0.523995 0.657305 -1.279123
-0.524040 0.637616 -1.279234
-0.540802 0.617880 -1.320151
-0.540843 0.598202 -1.320252
-0.540883 0.578529 -1.320349
-0.540921 0.558859 -1.320442
-0.557671 0.539151 -1.361331
-0.557706 0.519491 -1.361414
-0.557738 0.499836 -1.361493
-0.557769 0.480184 -1.361569
-0.557799 0.460536 -1.361641
-0.557827 0.440891 -1.361709
-0.557853 0.421250 -1.361773
-0.557878 0.401612 -1.361835
-0.557901 0.381976 -1.361891
-0.557923 0.362344 -1.361945
-0.557943 0.342715 -1.361994
-0.557962 0.323088 -1.362040
-0.557980 0.303464 -1.362083
-0.557996 0.283841 -1.362123
-0.574715 0.264205 -1.402936
-0.558024 0.244604 -1.362190
-0.558036 0.224989 -1.362220
-0.558046 0.205375 -1.362246
-0.558056 0.185763 -1.362269
-0.558064 0.166153 -1.362288
-0.541367 0.146551 -1.321530
-0.541373 0.126942 -1.321545
-0.541378 0.107334 -1.321556
-0.524679 0.087731 -1.280792
-0.524681 0.068124 -1.280798
-0.524683 0.048518 -1.280802
-0.507981 0.028912 -1.240031
-0.507980 0.009306 -1.240030
-0.507979 -0.010300 -1.240026
-0.507976 -0.029905 -1.240020
-0.507973 -0.049510 -1.240011
-0.491267 -0.069121 -1.199231
-0.491262 -0.088727 -1.199219
-0.491256 -0.108332 -1.199203
-0.491249 -0.127938 -1.199186
-0.507941 -0.147533 -1.239933
-0.507932 -0.167138 -1.239911
-0.507922 -0.186744 -1.239887
-0.507911 -0.206350 -1.239861
-0.507900 -0.225956 -1.239833
-0.507888 -0.245563 -1.239804
-0.507875 -0.265171 -1.239774
-0.507862 -0.284780 -1.239741
-0.507848 -0.304389 -1.239707
-0.507834 -0.324000 -1.239673
-0.491121 -0.343630 -1.198873
-0.474407 -0.363262 -1.158075
-0.474392 -0.382876 -1.158037
-0.474376 -0.402492 -1.157997
-0.457662 -0.422130 -1.117198
-0.457645 -0.441748 -1.117157
-0.440932 -0.461389 -1.076359
-0.440915 -0.481011 -1.076317
-0.440898 -0.500634 -1.076274
-0.424185 -0.520280 -1.035477
-0.424167 -0.539905 -1.035434
-0.424149 -0.559532 -1.035390
-0.407438 -0.579183 -0.994595
-0.407420 -0.598813 -0.994551
-0.407402 -0.618444 -0.994507
-0.390691 -0.638099 -0.953715
-0.390673 -0.657733 -0.953672
-0.373964 -0.677391 -0.912883
-0.373947 -0.697028 -0.912840
-0.357239 -0.716687 -0.872056
-0.123640 -0.736578 -0.301816
-0.140310 -0.756203 -0.342511
-0.140299 -0.775843 -0.342483
-0.140287 -0.795483 -0.342455
-0.140276 -0.815125 -0.342426
-0.140264 -0.834767 -0.342399
-0.140253 -0.854410 -0.342372
-0.140243 -0.874054 -0.342346
-0.156910 -0.893686 -0.383032
